-3.56174 5.1685 -1.44913
-3.54952 5.18399 -1.45048
-3.5197 5.17367 -1.44464
-3.50878 5.20224 -1.44868
-3.48448 5.1998 -1.44509
-3.46689 5.21856 -1.44644
-3.44263 5.21593 -1.44284
-3.40467 5.20357 -1.43564
-3.39117 5.21702 -1.43654
-3.37238 5.23382 -1.43744
-3.35246 5.23735 -1.43564
-3.31687 5.22768 -1.42934
-3.29286 5.22442 -1.42574
-3.26781 5.23094 -1.42394
-3.25415 5.24403 -1.42484
-3.23111 5.25369 -1.42394
-3.21229 5.25837 -1.42259
-3.18215 5.25617 -1.41854
-3.15632 5.24899 -1.41404
-3.12931 5.25153 -1.41134
-3.10759 5.25083 -1.40864
-3.09445 5.27667 -1.41224
-3.07076 5.27246 -1.40864
-3.0438 5.27457 -1.40594
-3.02602 5.2803 -1.40504
-3.00199 5.28728 -1.40369
-2.98995 5.30305 -1.40549
-2.96546 5.29669 -1.40145
-2.93952 5.29999 -1.3992
-2.92267 5.30708 -1.39875
-2.89675 5.31017 -1.3965
-2.86781 5.29485 -1.3902
-2.84016 5.29426 -1.38705
-2.81602 5.28727 -1.383
-2.78303 5.27609 -1.37715
-2.76357 5.27751 -1.37535
-2.73795 5.27987 -1.3731
-2.72299 5.28979 -1.37355
-2.69916 5.29543 -1.3722
-2.6771 5.29133 -1.36905
-2.66464 5.31942 -1.37355
-2.63045 5.29075 -1.3641
-2.61185 5.30647 -1.36545
-2.60362 5.33004 -1.3695
-2.57888 5.3334 -1.3677
-2.5595 5.33408 -1.3659
-2.53595 5.3259 -1.36185
-2.50632 5.31838 -1.35735
-2.48952 5.32411 -1.3569
-2.4723 5.34286 -1.35915
-2.44894 5.33432 -1.35511
-2.41227 5.31036 -1.34656
-2.38832 5.29981 -1.34206
-2.37187 5.32 -1.34476
-2.3559 5.32709 -1.34476
-2.32441 5.31326 -1.33891
-2.31157 5.32736 -1.34071
-2.27948 5.31149 -1.33441
-2.26583 5.32369 -1.33576
-2.23846 5.31834 -1.33216
-2.21649 5.31064 -1.32856
-2.19152 5.31046 -1.32631
-2.16672 5.29537 -1.32091
-2.14698 5.3076 -1.32181
-2.12887 5.30859 -1.32046
-2.10475 5.30982 -1.31866
-2.08881 5.31611 -1.31866
-2.07003 5.31509 -1.31686
-2.04665 5.31787 -1.31551
-2.0286 5.31853 -1.31416
-2.00525 5.32113 -1.31281
-1.98123 5.3218 -1.31101
-1.95784 5.30761 -1.30607
-1.94126 5.32821 -1.30922
-1.92262 5.32668 -1.30742
-1.91254 5.34894 -1.31146
-1.8801 5.32531 -1.30382
-1.86733 5.34012 -1.30607
-1.83896 5.32729 -1.30112
-1.82297 5.33278 -1.30112
-1.80225 5.34187 -1.30157
-1.78127 5.33247 -1.29797
-1.75383 5.32105 -1.29347
-1.73423 5.31517 -1.29077
-1.71654 5.33319 -1.29347
-1.69284 5.31418 -1.28762
-1.67216 5.32277 -1.28807
-1.65271 5.31659 -1.28537
-1.63675 5.32153 -1.28537
-1.61658 5.33176 -1.28627
-1.59413 5.33445 -1.28537
-1.57701 5.33547 -1.28447
-1.54912 5.31929 -1.27907
-1.53208 5.32016 -1.27817
-1.50972 5.3225 -1.27727
-1.49375 5.327 -1.27727
-1.47984 5.33897 -1.27907
-1.46073 5.33211 -1.27637
-1.43736 5.33039 -1.27457
-1.41702 5.33986 -1.27547
-1.40001 5.34032 -1.27457
-1.37572 5.33455 -1.27187
-1.35778 5.3311 -1.27007
-1.34024 5.35161 -1.27367
-1.3195 5.33669 -1.26917
-1.29814 5.34193 -1.26917
-1.2812 5.34201 -1.26827
-1.25714 5.33571 -1.26557
-1.24201 5.34325 -1.26647
-1.21889 5.34058 -1.26467
-1.20287 5.34421 -1.26467
-1.17896 5.33756 -1.26198
-1.16045 5.32965 -1.25928
-1.14609 5.34073 -1.26108
-1.12312 5.33764 -1.25928
-1.11026 5.35625 -1.26288
-1.08417 5.33774 -1.25748
-1.06433 5.32186 -1.25298
-1.04678 5.34519 -1.25748
-1.02779 5.333 -1.25388
-1.00718 5.3409 -1.25478
-0.988305 5.32857 -1.25118
-0.969069 5.34398 -1.25388
-0.94893 5.32385 -1.24848
-0.930969 5.3468 -1.25298
-0.914925 5.34957 -1.25298
-0.894803 5.36087 -1.25478
-0.873675 5.33276 -1.24758
-0.854181 5.34776 -1.25028
-0.838134 5.3503 -1.25028
-0.819121 5.33353 -1.24578
-0.80095 5.35796 -1.25073
-0.781767 5.33913 -1.24578
-0.761228 5.348 -1.24713
-0.745449 5.35219 -1.24758
-0.726646 5.37444 -1.25208
-0.704902 5.3341 -1.24218
-0.68257 5.32914 -1.24038
-0.668997 5.3505 -1.24488
-0.646654 5.3454 -1.24308
-0.631756 5.35699 -1.24533
-0.608339 5.34205 -1.24128
-0.591881 5.33997 -1.24038
-0.570516 5.3423 -1.24038
-0.554889 5.34786 -1.24128
-0.533106 5.34616 -1.24038
-0.51594 5.3361 -1.23768
-0.494232 5.33424 -1.23678
-0.476835 5.32017 -1.23318
-0.457213 5.34145 -1.23768
-0.440545 5.33503 -1.23588
-0.418744 5.33092 -1.23453
-0.401428 5.31467 -1.23048
-0.380583 5.32206 -1.23183
-0.160601 2.34469 -0.542582
-0.348517 5.3223 -1.23138
-0.327225 5.32365 -1.23138
-0.311025 5.32072 -1.23048
-0.288892 5.30636 -1.22688
-0.273873 5.32471 -1.23093
-0.252664 5.32771 -1.23138
-0.23668 5.32845 -1.23138
-0.214656 5.31183 -1.22733
-0.19923 5.32608 -1.23048
-0.177663 5.31904 -1.22868
-0.162061 5.33124 -1.23138
-0.140735 5.33184 -1.23138
-0.124465 5.32055 -1.22868
-0.103446 5.33465 -1.23183
-0.0876655 5.34857 -1.23498
-0.0714368 5.33517 -1.23183
-0.0499675 5.32177 -1.22868
-0.0339771 5.318 -1.22778
-0.0127049 5.3181 -1.22778
0.00324947 5.31811 -1.22778
0.0245578 5.32585 -1.22958
0.0404314 5.31211 -1.22643
0.0615889 5.30411 -1.22463
0.0776149 5.3117 -1.22643
0.0932064 5.29196 -1.22193
0.114626 5.30323 -1.22463
0.130248 5.29118 -1.22193
0.151467 5.29256 -1.22238
0.167159 5.28624 -1.22103
0.18858 5.29332 -1.22283
0.204534 5.29468 -1.22328
0.225462 5.28797 -1.22193
0.240614 5.2717 -1.21833
0.262183 5.28043 -1.22058
0.278432 5.2874 -1.22238
0.300021 5.29403 -1.22418
0.315437 5.28532 -1.22238
0.336204 5.27818 -1.22103
0.352297 5.28104 -1.22193
0.37328 5.27765 -1.22148
0.389972 5.28816 -1.22418
0.40961 5.26713 -1.21968
0.425567 5.26782 -1.22013
0.447129 5.2719 -1.22148
0.462942 5.27054 -1.22148
0.484021 5.26864 -1.22148
0.500008 5.26911 -1.22193
0.515054 5.25983 -1.22013
0.535101 5.24803 -1.21789
0.549825 5.23671 -1.21564
0.570978 5.23641 -1.21609
0.584949 5.21918 -1.21249
0.604022 5.20131 -1.20889
0.620085 5.20334 -1.20979
0.641608 5.20662 -1.21114
0.658446 5.21434 -1.21339
0.676779 5.19234 -1.20889
0.691838 5.18643 -1.20799
0.714436 5.19713 -1.21114
0.730566 5.19883 -1.21204
0.752471 5.20358 -1.21384
0.768078 5.2013 -1.21384
0.786246 5.18084 -1.20979
0.803276 5.18809 -1.21204
0.824022 5.18483 -1.21204
0.84113 5.19196 -1.21429
0.861572 5.18663 -1.21384
0.872902 5.15904 -1.20799
0.894529 5.16127 -1.20934
0.910009 5.15856 -1.20934
0.929597 5.14913 -1.20799
0.945392 5.14823 -1.20844
0.956898 5.1243 -1.20349
0.980676 5.13766 -1.20754
0.993487 5.1213 -1.20439
1.01548 5.12494 -1.20619
1.03085 5.12187 -1.20619
1.04898 5.10625 -1.20349
1.06588 5.11071 -1.20529
1.08713 5.11022 -1.20619
1.10533 5.12027 -1.20934
1.12371 5.10629 -1.20709
1.13817 5.09909 -1.20619
1.15856 5.0945 -1.20619
1.17296 5.0872 -1.20529
1.19776 5.10144 -1.20979
1.20764 5.07507 -1.20439
1.22793 5.0702 -1.20439
1.24546 5.07596 -1.20664
1.25645 5.05518 -1.20259
1.27666 5.05011 -1.20259
1.29588 5.04119 -1.20169
1.30904 5.02974 -1.19989
1.3271 5.03709 -1.20259
1.34724 5.03174 -1.20259
1.36436 5.0352 -1.20439
1.38294 5.02407 -1.20304
1.39226 4.99925 -1.19809
1.41383 4.99926 -1.19944
1.42615 4.98563 -1.19719
1.45151 4.9986 -1.20169
1.46376 4.98488 -1.19944
1.48313 4.97711 -1.19899
1.49636 4.96704 -1.19764
1.51622 4.96102 -1.19764
1.5357 4.97134 -1.20124
1.55208 4.954 -1.19854
1.56164 4.9326 -1.19449
1.58433 4.9356 -1.19674
1.59913 4.93082 -1.19674
1.61877 4.94082 -1.20034
1.63545 4.92505 -1.19809
1.64898 4.91643 -1.19719
1.66863 4.9098 -1.19719
1.68588 4.91214 -1.19899
1.70808 4.91272 -1.20079
1.71894 4.89654 -1.19809
1.73459 4.87861 -1.19539
1.75449 4.88806 -1.19899
1.77203 4.87551 -1.19764
1.79403 4.89029 -1.20259
1.80136 4.85019 -1.19449
1.82548 4.87032 -1.20079
1.38851 3.67094 -0.906103
1.86232 4.8647 -1.20259
1.87831 4.86272 -1.20349
1.89774 4.85517 -1.20349
1.90801 4.83858 -1.20079
1.93457 4.84901 -1.20529
1.95566 4.85945 -1.20934
1.9714 4.84257 -1.20709
1.98148 4.82582 -1.20439
2.00226 4.82145 -1.20529
2.01672 4.81542 -1.20529
2.02509 4.79499 -1.20169
2.05497 4.81194 -1.20799
2.06957 4.79295 -1.20529
2.08549 4.79029 -1.20619
2.09992 4.77121 -1.20349
2.11423 4.76489 -1.20349
2.13806 4.76706 -1.20619
2.14914 4.75352 -1.20439
2.16975 4.74843 -1.20529
2.1848 4.74367 -1.20574
2.2087 4.7455 -1.20844
2.23037 4.75473 -1.21249
2.24102 4.72816 -1.20799
2.25184 4.71438 -1.20619
2.27104 4.71814 -1.20889
2.2916 4.71252 -1.20979
2.31259 4.71962 -1.21339
2.3228 4.69287 -1.20889
2.33774 4.68763 -1.20934
2.35735 4.67998 -1.20979
2.37491 4.67984 -1.21159
2.39426 4.6831 -1.21429
2.4094 4.66656 -1.21249
2.41619 4.64548 -1.20889
2.43113 4.62888 -1.20709
2.45047 4.6319 -1.20979
2.47816 4.63925 -1.21429
2.49207 4.63179 -1.21429
2.51244 4.62521 -1.21519
2.5263 4.61765 -1.21519
2.5504 4.61775 -1.21789
2.56803 4.61689 -1.21968
2.58076 4.59638 -1.21699
2.59645 4.59201 -1.21789
2.609 4.57144 -1.21519
2.62659 4.57035 -1.21699
2.65072 4.56992 -1.21968
2.66343 4.56026 -1.21923
2.67019 4.54049 -1.21609
2.69131 4.5348 -1.21744
2.7069 4.53005 -1.21833
2.73506 4.53588 -1.22283
2.7436 4.51932 -1.22058
2.75352 4.49502 -1.21699
2.76801 4.4884 -1.21744
2.79418 4.49053 -1.22103
2.80867 4.48378 -1.22148
2.82242 4.46592 -1.21968
2.83267 4.4525 -1.21833
2.8494 4.43949 -1.21789
2.86799 4.43911 -1.22013
2.88679 4.42923 -1.22058
2.90007 4.42055 -1.22058
2.90687 4.40207 -1.21789
2.93526 4.40663 -1.22238
2.96047 4.40618 -1.22553
2.97695 4.40212 -1.22688
2.98357 4.3835 -1.22418
2.99446 4.36189 -1.22148
3.00975 4.35609 -1.22238
3.03383 4.35361 -1.22508
3.05359 4.35407 -1.22778
3.06986 4.34023 -1.22733
3.07495 4.31988 -1.22418
3.09562 4.3123 -1.22553
3.10968 4.30457 -1.22598
3.12917 4.29525 -1.22688
3.13743 4.27956 -1.22508
3.1572 4.27953 -1.22778
3.17197 4.26374 -1.22688
3.19058 4.26201 -1.22913
3.20643 4.24766 -1.22868
3.22387 4.24423 -1.23048
3.23253 4.22047 -1.22733
3.2535 4.22155 -1.23048
3.25482 4.1885 -1.22463
3.34659 4.28004 -1.25433
3.32991 4.22377 -1.24173
3.30865 4.17101 -1.22913
3.32774 4.16079 -1.23003
3.34388 4.15534 -1.23138
3.37029 4.15404 -1.23498
3.37288 4.13183 -1.23138
3.39681 4.12734 -1.23408
3.41415 4.12313 -1.23588
3.42312 4.10047 -1.23318
3.44544 4.10212 -1.23678
3.45521 4.08878 -1.23588
3.46901 4.07196 -1.23498
3.48375 4.0645 -1.23588
3.50253 4.05348 -1.23678
3.52106 4.05031 -1.23903
3.52696 4.02447 -1.23543
3.54546 4.02117 -1.23768
3.55375 3.99822 -1.23498
3.57093 3.99335 -1.23678
3.58817 3.98048 -1.23723
3.59094 3.9596 -1.23408
3.6028 3.94089 -1.23273
3.61988 3.9358 -1.23453
3.63427 3.91986 -1.23408
3.66463 3.92889 -1.24038
3.67373 3.91504 -1.23948
3.68266 3.89323 -1.23723
3.70104 3.88922 -1.23948
3.73816 3.89689 -1.24668
3.76066 3.89688 -1.25028
3.75991 3.86504 -1.24488
3.76876 3.85096 -1.24398
3.78687 3.83863 -1.24488
3.8121 3.84108 -1.24938
3.83846 3.83682 -1.25298
3.84857 3.82392 -1.25253
3.86244 3.80712 -1.25208
3.86828 3.79006 -1.25028
3.889 3.77999 -1.25208
3.91153 3.77914 -1.25568
3.93972 3.78359 -1.26108
3.94071 3.75436 -1.25658
3.96328 3.75324 -1.26018
3.96974 3.72935 -1.25748
3.99515 3.73072 -1.26198
4.02148 3.72531 -1.26557
4.0398 3.71983 -1.26782
4.04746 3.69707 -1.26557
4.06141 3.68753 -1.26647
4.08192 3.67647 -1.26827
4.07261 3.64601 -1.26198
4.08716 3.62969 -1.26198
4.09803 3.61741 -1.26198
4.11833 3.60612 -1.26377
4.13795 3.60143 -1.26647
4.14642 3.57976 -1.26467
4.16158 3.57111 -1.26602
4.16931 3.55608 -1.26512
4.20135 3.55448 -1.27052
4.2299 3.55691 -1.27592
4.23062 3.52872 -1.27187
4.26369 3.53467 -1.27862
4.28231 3.5213 -1.27997
4.29286 3.50844 -1.27997
4.30988 3.49369 -1.28087
4.31276 3.47464 -1.27862
4.34185 3.46952 -1.28312
4.37207 3.47224 -1.28897
4.37674 3.44749 -1.28627
4.40241 3.44635 -1.29077
4.40077 3.41676 -1.28627
4.41408 3.40593 -1.28717
4.42737 3.39504 -1.28807
4.45333 3.38674 -1.29167
4.45259 3.36514 -1.28852
4.50344 3.37535 -1.29932
4.45728 3.31992 -1.28312
4.50187 3.32522 -1.29212
4.55896 3.3463 -1.30562
4.58176 3.33491 -1.30832
4.59806 3.32572 -1.31011
4.61449 3.30957 -1.31101
4.62916 3.29911 -1.31236
4.62481 3.2682 -1.30742
4.68563 3.29014 -1.32181
4.69876 3.27137 -1.32181
4.68291 3.23952 -1.31461
4.691 3.22436 -1.31416
4.67809 3.18801 -1.30697
4.70216 3.18379 -1.31101
4.73104 3.17582 -1.31551
4.78918 3.19405 -1.32901
4.80517 3.17702 -1.32991
2.0034 1.31596 -0.55338
4.83709 3.14968 -1.33261
4.8596 3.14363 -1.33621
4.86886 3.12206 -1.33531
4.90779 3.12628 -1.34341
4.92955 3.09185 -1.34341
4.94188 3.07211 -1.34341
5.0098 3.06592 -1.356
5.01232 3.04683 -1.35421
5.02477 3.0338 -1.35511
5.0168 3.00167 -1.34971
5.04254 2.99656 -1.35421
5.14852 3.03174 -1.3794
5.10713 2.98677 -1.3659
5.20334 3.01517 -1.3884
5.16844 2.97427 -1.3767
5.22133 2.98389 -1.3884
5.22644 2.95914 -1.3866
5.2353 2.94345 -1.3866
5.24703 2.92248 -1.3866
5.24503 2.89394 -1.383
5.25027 2.87632 -1.3821
5.28571 2.86831 -1.3884
5.31831 2.86538 -1.3947
5.36125 2.86779 -1.40369
5.32963 2.82352 -1.39245
5.32255 2.79935 -1.3884
5.37864 2.80145 -1.4001
5.43376 2.80946 -1.41224
5.44669 2.78859 -1.41269
5.44808 2.76871 -1.41089
5.45041 2.74252 -1.40864
5.45338 2.72354 -1.40729
5.43978 2.68961 -1.401
5.46881 2.68358 -1.40639
5.5356 2.68893 -1.42079
5.57348 2.6867 -1.42844
5.5965 2.67026 -1.43159
5.63971 2.67014 -1.44059
5.66886 2.66315 -1.44599
5.66533 2.63388 -1.44239
5.66967 2.61524 -1.44149
5.71376 2.60791 -1.45003
5.72334 2.59156 -1.45048
5.7382 2.57758 -1.45228
5.73243 2.54748 -1.44823
5.74897 2.5342 -1.45048
5.73226 2.4995 -1.44374
5.7612 2.49158 -1.44913
5.82308 2.49074 -1.46218
5.84488 2.47934 -1.46578
5.8835 2.46801 -1.47298
5.93046 2.46681 -1.48288
5.98354 2.46086 -1.49367
6.05946 2.47086 -1.51077
6.06568 2.44514 -1.50987
6.04042 2.41392 -1.50177
6.16965 2.43699 -1.53147
3.19008 1.24902 -0.790928
6.23018 2.41062 -1.54226
6.20463 2.37936 -1.53417
6.22503 2.35866 -1.53687
6.21018 2.33176 -1.53147
6.20985 2.3104 -1.52967
6.2227 2.28688 -1.53057
6.20389 2.25887 -1.52427
6.18904 2.22547 -1.51842
6.19018 2.20493 -1.51707
6.18792 2.17627 -1.51437
6.21098 2.16347 -1.51842
6.17536 2.1234 -1.50762
6.1817 2.10486 -1.50762
6.19746 2.0826 -1.50942
6.18334 2.05723 -1.50447
6.20633 2.03734 -1.50807
6.16608 2.00366 -1.49682
6.16106 1.97482 -1.49367
6.15209 1.95161 -1.49008
6.13381 1.91884 -1.48378
6.14513 1.90216 -1.48513
6.12846 1.87017 -1.47928
6.11538 1.84614 -1.47478
6.13023 1.83058 -1.47703
6.13003 1.80384 -1.47523
6.13354 1.7849 -1.47478
6.1144 1.75283 -1.46848
6.11401 1.73289 -1.46713
6.09086 1.70003 -1.45993
6.12223 1.68901 -1.46623
6.11599 1.66756 -1.46353
6.13391 1.64611 -1.46623
6.10464 1.61211 -1.45768
6.11888 1.59625 -1.45993
6.09911 1.57156 -1.45408
6.1129 1.54907 -1.45588
6.12319 1.53214 -1.45723
6.10467 1.50159 -1.45138
6.13377 1.48924 -1.45723
6.11693 1.45927 -1.45183
6.11938 1.44047 -1.45138
6.12699 1.41642 -1.45183
6.12362 1.3963 -1.45003
6.12725 1.37136 -1.44958
6.11611 1.34962 -1.44599
6.14051 1.32927 -1.45048
6.12732 1.30718 -1.44644
6.12487 1.28106 -1.44464
6.13059 1.26308 -1.44509
6.15154 1.24817 -1.44913
6.13546 1.21937 -1.44419
6.12953 1.19909 -1.44194
6.12279 1.17236 -1.43924
6.13586 1.15579 -1.44149
6.1251 1.12842 -1.43789
6.14763 1.11351 -1.44239
6.1386 1.08653 -1.43924
6.13608 1.06711 -1.43789
6.13261 1.04125 -1.43609
6.14339 1.02413 -1.43789
6.16091 1.00174 -1.44104
6.10423 0.973734 -1.42709
6.13215 0.959333 -1.43294
6.14557 0.936264 -1.43519
6.12137 0.913795 -1.42889
6.12883 0.889863 -1.42979
6.12376 0.870375 -1.42799
6.11561 0.844274 -1.42529
6.12777 0.827227 -1.42754
6.11557 0.800686 -1.42394
6.11988 0.782583 -1.42439
6.11909 0.757618 -1.42349
6.12327 0.739491 -1.42394
6.11069 0.713185 -1.42034
6.11668 0.69529 -1.42124
6.13878 0.672941 -1.42574
6.12721 0.653076 -1.42259
6.12396 0.627966 -1.42124
6.14521 0.611521 -1.42574
6.14701 0.593082 -1.42574
6.15516 0.569028 -1.42709
6.11802 0.547089 -1.41809
6.13569 0.523939 -1.42169
6.12364 0.504409 -1.41854
6.16058 0.48265 -1.42664
6.15811 0.463874 -1.42574
6.14048 0.437852 -1.42124
6.13788 0.419163 -1.42034
6.13522 0.400493 -1.41944
6.1465 0.376545 -1.42169
6.17714 0.353627 -1.42844
6.13925 0.332983 -1.41944
6.1266 0.313866 -1.41629
6.11418 0.288714 -1.41314
6.12281 0.270714 -1.41494
6.13358 0.246612 -1.41719
6.14013 0.228428 -1.41854
6.12736 0.203413 -1.41539
6.1182 0.184736 -1.41314
6.13643 0.160721 -1.41719
6.15636 0.142763 -1.42169
6.10233 0.117089 -1.40909
6.12214 0.0990974 -1.41359
6.12249 0.0746081 -1.41359
6.14022 0.0564014 -1.41764
6.1326 0.0317997 -1.41584
7.01658 -0.0350832 -1.3639
7.01448 -0.0561171 -1.36352
7.03187 -0.0843865 -1.36696
7.02755 -0.11245 -1.36619
7.00755 -0.13316 -1.36238
7.01497 -0.154354 -1.3639
7.01626 -0.182464 -1.36428
7.01568 -0.203512 -1.36428
7.03247 -0.232156 -1.36772
7.0082 -0.252404 -1.36314
7.01106 -0.280592 -1.3639
7.0043 -0.301371 -1.36276
7.01481 -0.329939 -1.36505
7.02555 -0.35157 -1.36734
7.01625 -0.379246 -1.36581
7.00724 -0.399846 -1.36428
7.00558 -0.427871 -1.36428
7.01602 -0.449639 -1.36657
7.02004 -0.4781 -1.36772
7.01074 -0.498601 -1.36619
7.00282 -0.526198 -1.36505
7.00121 -0.547204 -1.36505
7.02302 -0.570112 -1.36963
7.02851 -0.598866 -1.37115
6.9993 -0.617533 -1.36581
7.0085 -0.646608 -1.3681
7.01044 -0.668003 -1.36886
6.9999 -0.695263 -1.36734
7.00169 -0.716659 -1.3681
6.99876 -0.74466 -1.3681
6.98869 -0.764799 -1.36657
7.00002 -0.787297 -1.36925
7.00267 -0.815973 -1.37039
6.99824 -0.836744 -1.37001
6.99873 -0.865212 -1.37077
6.98052 -0.88423 -1.36772
6.99056 -0.913927 -1.37039
6.98195 -0.934113 -1.36925
6.99371 -0.964178 -1.3723
6.98107 -0.983785 -1.37039
6.97319 -1.01114 -1.36963
6.99732 -1.03608 -1.37497
6.98923 -1.06347 -1.37421
6.98601 -1.08443 -1.37421
6.97968 -1.11206 -1.37382
6.97244 -1.13236 -1.37306
6.97753 -1.16186 -1.37497
6.9837 -1.18442 -1.37688
6.97237 -1.20403 -1.37535
6.9733 -1.23294 -1.3765
6.96377 -1.25281 -1.37535
6.9645 -1.28172 -1.3765
6.96641 -1.30369 -1.37764
6.97271 -1.33376 -1.37993
6.97446 -1.3558 -1.38108
6.96513 -1.38292 -1.38031
6.97635 -1.40691 -1.38337
6.95912 -1.43243 -1.38108
6.97017 -1.45652 -1.38413
6.95661 -1.48275 -1.3826
6.94829 -1.50278 -1.38184
6.96906 -1.53648 -1.38718
6.96059 -1.55652 -1.38642
6.94665 -1.58261 -1.38489
6.95718 -1.60698 -1.38794
6.94687 -1.63389 -1.38718
6.9534 -1.65746 -1.38947
6.93526 -1.68248 -1.38718
6.94162 -1.70609 -1.38947
6.95172 -1.7307 -1.39252
6.93712 -1.75657 -1.391
6.95084 -1.78225 -1.39481
6.93796 -1.80855 -1.39367
6.94579 -1.83286 -1.39634
6.95357 -1.8647 -1.39939
6.94226 -1.88401 -1.39825
6.93088 -1.91072 -1.39749
6.95538 -1.93994 -1.40359
6.94756 -1.96775 -1.40359
6.93785 -1.9875 -1.40283
6.93362 -2.01633 -1.40359
6.94261 -2.04156 -1.40664
6.96072 -2.07717 -1.41199
6.96386 -2.10088 -1.41389
6.95352 -2.12814 -1.41351
6.94711 -2.14899 -1.41351
6.98185 -2.18271 -1.42191
6.99178 -2.21655 -1.42572
6.98884 -2.23872 -1.42649
6.97983 -2.26665 -1.42649
6.98046 -2.29003 -1.42801
6.97869 -2.32041 -1.42954
6.98473 -2.34571 -1.43221
6.99016 -2.37869 -1.43527
6.98856 -2.40157 -1.43641
6.97704 -2.42886 -1.43603
6.97714 -2.45238 -1.43755
6.97345 -2.47461 -1.43832
6.99305 -2.51311 -1.44442
6.99656 -2.5381 -1.44671
6.97529 -2.562 -1.44442
6.97862 -2.58701 -1.44671
6.94983 -2.60801 -1.4429
6.96401 -2.63719 -1.44748
6.94974 -2.66362 -1.44671
6.94538 -2.68587 -1.44748
6.93458 -2.71363 -1.44748
6.93006 -2.73586 -1.44824
6.93729 -2.77084 -1.45206
6.93259 -2.79311 -1.45282
6.91046 -2.81637 -1.45053
6.92014 -2.84456 -1.45435
6.92683 -2.87975 -1.45816
6.92178 -2.90204 -1.45893
6.9065 -2.92817 -1.45816
6.89949 -2.94964 -1.45854
6.89845 -2.98189 -1.46083
6.88947 -3.00257 -1.46083
6.9056 -3.03429 -1.46618
6.88802 -3.05949 -1.46503
6.87702 -3.07934 -1.46465
6.88075 -3.11411 -1.46808
6.9071 -3.15104 -1.47572
6.91583 -3.1885 -1.4803
6.93472 -3.22247 -1.4864
6.90045 -3.24017 -1.48182
6.88893 -3.26002 -1.48144
6.87203 -3.27729 -1.47991
6.85886 -3.30475 -1.47991
6.84029 -3.32958 -1.47877
6.8197 -3.3449 -1.47648
6.79907 -3.36013 -1.47419
6.78909 -3.38905 -1.47495
6.77889 -3.4094 -1.47495
6.7477 -3.4276 -1.47114
6.7269 -3.44246 -1.46885
6.70784 -3.46664 -1.4677
6.69915 -3.48765 -1.46808
6.69036 -3.51716 -1.46923
6.6607 -3.52711 -1.46503
6.63961 -3.55002 -1.46351
6.6151 -3.56248 -1.46045
6.5939 -3.58516 -1.45893
6.58139 -3.60398 -1.45854
6.55852 -3.61707 -1.45587
6.52341 -3.63182 -1.45129
6.50883 -3.65788 -1.45129
6.50295 -3.68029 -1.45244
6.48336 -3.69492 -1.45053
6.46342 -3.71789 -1.44939
6.43695 -3.72841 -1.44595
6.42029 -3.75314 -1.44557
6.39715 -3.76541 -1.4429
6.37698 -3.78796 -1.44175
6.35379 -3.80002 -1.43908
6.33014 -3.82033 -1.43717
6.31529 -3.83727 -1.43641
6.30324 -3.86455 -1.43717
6.31668 -3.89891 -1.4429
6.30829 -3.91991 -1.44366
6.29588 -3.9472 -1.44442
6.24686 -3.95136 -1.43679
6.29791 -4.01016 -1.45129
6.31891 -4.05022 -1.45893
2.73175 -1.76642 -0.632341
6.23446 -4.05794 -1.44595
6.18535 -4.06129 -1.43832
6.18952 -4.09066 -1.44213
6.18618 -4.12409 -1.44519
6.14769 -4.12513 -1.43908
6.11 -4.13538 -1.43412
6.12191 -4.17027 -1.43984
6.12783 -4.21029 -1.44519
6.08934 -4.21079 -1.43908
6.06601 -4.23062 -1.43755
6.04043 -4.23978 -1.4345
6.01165 -4.24655 -1.43069
6.00101 -4.27512 -1.43221
6.00092 -4.30226 -1.43527
5.97094 -4.31702 -1.43221
5.94367 -4.32452 -1.42878
5.92474 -4.3471 -1.4284
5.92115 -4.37185 -1.43069
5.89732 -4.39081 -1.42916
5.88412 -4.40848 -1.42916
5.86644 -4.43199 -1.42916
5.84687 -4.44481 -1.42763
5.82592 -4.46578 -1.42687
5.80939 -4.48083 -1.42611
5.79902 -4.50065 -1.42687
5.77479 -4.51897 -1.42534
5.77355 -4.54599 -1.4284
5.73994 -4.55684 -1.42458
5.73852 -4.58384 -1.42763
5.71861 -4.60553 -1.42725
5.70629 -4.6239 -1.42763
5.67254 -4.63427 -1.42382
5.66165 -4.65376 -1.42458
5.63997 -4.67386 -1.42382
5.60782 -4.67567 -1.41924
5.61462 -4.71954 -1.42572
5.58845 -4.72622 -1.42267
5.5695 -4.74854 -1.42267
5.5597 -4.76906 -1.42382
5.53315 -4.78484 -1.42191
5.51433 -4.79755 -1.42076
5.49657 -4.82087 -1.42115
5.49681 -4.85032 -1.42496
5.45976 -4.85661 -1.42038
5.45248 -4.87952 -1.42229
5.43 -4.89866 -1.42153
5.37312 -4.87666 -1.41046
5.39181 -4.92321 -1.41924
5.38219 -4.95404 -1.42191
5.35082 -4.96485 -1.41886
5.3359 -4.98088 -1.41886
5.3195 -4.99552 -1.41847
5.31373 -5.03025 -1.42229
5.29151 -5.0394 -1.42038
5.25573 -5.04557 -1.41618
5.24198 -5.06268 -1.41657
5.2231 -5.08498 -1.41695
5.20501 -5.09788 -1.41618
5.18458 -5.11866 -1.41618
5.17477 -5.13972 -1.41771
5.14307 -5.14927 -1.41466
5.13452 -5.17164 -1.41657
5.11517 -5.19353 -1.41695
5.10094 -5.21026 -1.41733
5.09761 -5.2382 -1.42076
5.04661 -5.22748 -1.41237
5.04586 -5.25817 -1.41657
5.02479 -5.27832 -1.41657
5.00768 -5.30265 -1.41771
4.96891 -5.29332 -1.41122
4.96774 -5.32399 -1.41542
4.9384 -5.33518 -1.41313
4.94098 -5.37019 -1.41847
4.91152 -5.38121 -1.41618
4.89667 -5.39738 -1.41657
4.87111 -5.41254 -1.41542
4.85485 -5.42713 -1.41542
4.8344 -5.44798 -1.4158
4.82323 -5.46835 -1.41733
4.80261 -5.48907 -1.41771
4.78741 -5.50494 -1.41809
4.77305 -5.53296 -1.42038
4.75771 -5.54875 -1.42076
4.73467 -5.55552 -1.41886
4.71495 -5.57742 -1.41962
4.69188 -5.58402 -1.41771
4.6695 -5.60274 -1.41771
4.65831 -5.63499 -1.42115
4.65385 -5.66411 -1.42496
4.62 -5.66899 -1.42153
4.6005 -5.67977 -1.42076
4.59082 -5.70272 -1.42305
4.5594 -5.7103 -1.42038
4.56055 -5.74702 -1.42611
4.52539 -5.74979 -1.42229
4.51054 -5.76643 -1.42305
4.49225 -5.79063 -1.42458
4.47845 -5.80875 -1.42572
4.44684 -5.8157 -1.42305
4.43412 -5.83526 -1.42458
4.41547 -5.85923 -1.42611
4.39552 -5.8693 -1.42534
4.3802 -5.89787 -1.42801
4.36948 -5.92046 -1.4303
4.33881 -5.92839 -1.42801
4.31523 -5.93344 -1.42611
4.28916 -5.94747 -1.42534
4.29189 -5.98903 -1.43221
4.26251 -5.98589 -1.4284
4.23627 -5.99968 -1.42763
4.22163 -6.01719 -1.42878
4.19865 -6.03564 -1.42916
4.18276 -6.05144 -1.42992
4.17406 -6.09079 -1.43527
4.14251 -6.08381 -1.43069
4.12693 -6.11335 -1.43374
4.13044 -6.15831 -1.44137
0.913119 -1.37326 -0.320559
4.07641 -6.17069 -1.43755
4.05062 -6.18531 -1.43717
4.03954 -6.20895 -1.43984
4.02744 -6.24486 -1.44442
4.00551 -6.25195 -1.44328
4.00149 -6.28713 -1.44862
3.95327 -6.26656 -1.44023
3.9365 -6.29564 -1.44328
3.92899 -6.32576 -1.44748
3.89968 -6.32081 -1.44366
3.88256 -6.34976 -1.44671
3.87063 -6.37313 -1.44939
3.83093 -6.36501 -1.44404
3.82794 -6.40343 -1.45015
3.80329 -6.42038 -1.45053
3.79397 -6.44869 -1.45435
3.76419 -6.45703 -1.45282
3.74185 -6.46319 -1.45167
3.71695 -6.47981 -1.45206
3.72081 -6.53187 -1.46122
3.68308 -6.52619 -1.45664
3.67596 -6.55947 -1.4616
3.63921 -6.55524 -1.4574
3.61858 -6.56441 -1.45702
3.58947 -6.57366 -1.45587
3.59125 -6.6241 -1.46465
3.55637 -6.62284 -1.46122
3.54203 -6.64388 -1.46351
3.51932 -6.64927 -1.46236
3.49999 -6.6772 -1.46541
3.49354 -6.7138 -1.47114
3.45047 -6.6963 -1.46427
3.43394 -6.71362 -1.46579
3.41149 -6.73605 -1.4677
3.40009 -6.7638 -1.47152
3.37388 -6.7791 -1.4719
3.34309 -6.76807 -1.46732
3.32289 -6.7955 -1.47037
3.29992 -6.80014 -1.46923
3.28204 -6.83275 -1.47343
3.24633 -6.81067 -1.46656
3.22241 -6.8307 -1.46808
3.20773 -6.85278 -1.47076
3.17947 -6.86378 -1.47037
3.1646 -6.88577 -1.47305
3.14393 -6.89523 -1.47305
3.12036 -6.9167 -1.47495
3.09719 -6.92066 -1.47381
3.06869 -6.9312 -1.47343
3.05419 -6.95475 -1.47648
3.02948 -6.97411 -1.47801
3.00466 -6.97416 -1.4761
2.97982 -6.99334 -1.47762
2.96188 -7.00949 -1.47915
2.93912 -7.03396 -1.48182
2.918 -7.04274 -1.48182
2.89576 -7.06889 -1.48488
2.87528 -7.07937 -1.48526
2.85696 -7.09524 -1.48678
2.83509 -7.12303 -1.49022
2.80945 -7.14162 -1.49174
2.78088 -7.13173 -1.48793
2.75948 -7.14004 -1.48793
2.7435 -7.18403 -1.4948
0.867027 -2.2979 -0.477404
2.69727 -7.2141 -1.49709
2.66811 -7.2019 -1.49289
2.63524 -7.20146 -1.4906
2.60841 -7.21748 -1.49174
2.59601 -7.25115 -1.49709
2.57294 -7.2552 -1.49632
2.5426 -7.26173 -1.49556
2.52466 -7.28046 -1.49785
2.5006 -7.30536 -1.5009
2.48309 -7.32584 -1.50357
2.44941 -7.32268 -1.5009
2.42866 -7.33372 -1.50167
2.40114 -7.34898 -1.50281
2.37847 -7.35428 -1.50243
0.465989 -1.46078 -0.298044
2.33403 -7.39322 -1.50701
2.30327 -7.39874 -1.50625
2.28626 -7.42251 -1.50968
2.25313 -7.42032 -1.50739
2.23425 -7.43833 -1.50968
2.21304 -7.44876 -1.51044
2.18599 -7.46697 -1.51235
2.15594 -7.4471 -1.50701
2.13259 -7.47832 -1.51159
2.11175 -7.49035 -1.51273
2.08807 -7.52144 -1.51731
2.06186 -7.51442 -1.51464
2.02974 -7.51502 -1.51312
2.01629 -7.55522 -1.51998
1.98855 -7.57272 -1.52189
1.96287 -7.56725 -1.5196
1.93501 -7.58455 -1.52151
1.91321 -7.59413 -1.52227
1.88187 -7.59791 -1.52151
1.86886 -7.64357 -1.52952
1.83506 -7.63762 -1.52685
1.81214 -7.64309 -1.52685
1.79099 -7.65614 -1.52838
1.75859 -7.65559 -1.52685
1.73909 -7.67615 -1.52991
1.71348 -7.70604 -1.53449
1.68489 -7.68622 -1.52952
1.65455 -7.69482 -1.52991
1.63512 -7.71703 -1.53334
1.60863 -7.74465 -1.53754
1.58499 -7.74752 -1.53716
1.55206 -7.74417 -1.53525
1.52426 -7.72568 -1.53067
1.49819 -7.75678 -1.53563
1.47748 -7.77474 -1.5383
1.44816 -7.79024 -1.54021
1.42408 -7.79068 -1.53945
1.39463 -7.80598 -1.54136
1.36883 -7.79659 -1.53868
1.34427 -7.84071 -1.54632
1.31846 -7.83115 -1.54364
1.29336 -7.82539 -1.54174
1.25955 -7.81499 -1.53868
1.23855 -7.83425 -1.54174
1.2087 -7.84884 -1.54364
1.18837 -7.87379 -1.54784
1.15829 -7.88819 -1.54975
1.12987 -7.85859 -1.54326
1.10087 -7.88055 -1.5467
1.05084 -7.92699 -1.55433
1.02756 -7.934 -1.55509
0.995569 -7.9361 -1.55471
0.977481 -7.98582 -1.56387
0.944607 -7.98186 -1.56234
0.921557 -7.99246 -1.56387
0.890448 -8.00389 -1.5654
0.864532 -7.98896 -1.56196
0.270132 -2.59317 -0.506789
0.811354 -8.02216 -1.56731
0.780397 -8.03707 -1.56959
0.757018 -8.04719 -1.57112
0.723239 -8.03255 -1.56769
0.702542 -8.07381 -1.57532
0.677824 -8.07001 -1.57417
0.646947 -8.09027 -1.57761
0.615027 -8.09866 -1.57875
0.590871 -8.10243 -1.57914
0.567383 -8.11592 -1.58142
0.534915 -8.11812 -1.58142
0.509942 -8.10989 -1.57952
0.478421 -8.12755 -1.58257
0.454693 -8.14071 -1.58486
0.423957 -8.17775 -1.59173
0.0845575 -1.73149 -0.336969
0.369516 -8.24328 -1.60394
-0.996016 -8.38698 -1.64172
-1.0219 -8.32058 -1.62951
-1.04931 -8.33695 -1.63332
-1.08113 -8.32101 -1.63104
-1.10712 -8.32551 -1.63256
-1.14148 -8.3288 -1.63409
-1.16701 -8.32922 -1.63485
-1.20424 -8.35169 -1.64019
-1.23386 -8.37912 -1.6463
-1.25608 -8.35597 -1.64248
-1.29069 -8.35864 -1.64401
-1.3182 -8.37024 -1.64706
-1.35637 -8.39397 -1.65279
-1.38473 -8.40924 -1.6566
-1.41673 -8.39395 -1.6547
-1.44057 -8.38193 -1.65317
-1.47817 -8.3993 -1.65775
-1.50544 -8.40642 -1.66004
-1.53905 -8.40033 -1.66004
-1.56748 -8.41305 -1.66347
-1.60222 -8.4125 -1.66462
-1.62634 -8.40187 -1.66347
-1.66183 -8.40493 -1.66538
-1.69323 -8.4307 -1.67149
-1.72891 -8.43348 -1.67339
-1.755 -8.4321 -1.67416
-1.78953 -8.42885 -1.67492
-1.81812 -8.4388 -1.67797
-1.85775 -8.4583 -1.68332
-1.88141 -8.44503 -1.68179
-1.91344 -8.42977 -1.68026
-1.94488 -8.45078 -1.68561
-1.97112 -8.44873 -1.68637
-2.00399 -8.43696 -1.68561
-2.04003 -8.43842 -1.68751
-2.06627 -8.43607 -1.68828
-2.10095 -8.43155 -1.68904
-2.12959 -8.43854 -1.69171
-2.15879 -8.44733 -1.69477
-2.1896 -8.42722 -1.69248
-2.21787 -8.43201 -1.69477
-2.25259 -8.42686 -1.69553
-2.28145 -8.43333 -1.6982
-2.31725 -8.43171 -1.69973
-2.34201 -8.42283 -1.69934
-2.37301 -8.40395 -1.69744
-2.40252 -8.41189 -1.70049
-2.43725 -8.40599 -1.70125
-2.46687 -8.41371 -1.70431
-2.49771 -8.39437 -1.7024
-2.52514 -8.39435 -1.70392
-2.54689 -8.37547 -1.70163
-2.58847 -8.39148 -1.70698
-2.61714 -8.39492 -1.70927
-2.64833 -8.3769 -1.70774
-2.67703 -8.38014 -1.71003
-2.71779 -8.39178 -1.71461
-2.74662 -8.39478 -1.7169
-2.79253 -8.421 -1.72453
-3.91955 -8.21445 -1.76918
-3.92205 -8.15665 -1.75926
-3.96151 -8.15502 -1.76231
-3.98337 -8.13781 -1.76117
-4.01502 -8.12005 -1.76079
-4.05536 -8.11973 -1.76422
-4.08059 -8.10929 -1.7646
-4.11655 -8.0999 -1.76613
-4.15514 -8.11547 -1.77223
-4.18757 -8.11867 -1.77567
-4.26536 -8.18892 -1.79475
-5.30921 -7.79044 -1.83253
-5.28369 -7.70324 -1.81574
-5.28989 -7.64652 -1.80734
-5.32627 -7.64996 -1.81192
-5.36472 -7.63984 -1.81459
-5.39328 -7.63172 -1.8165
-5.41237 -7.5941 -1.81269
-5.43971 -7.58421 -1.81421
-5.4631 -7.55285 -1.81192
-5.4996 -7.55547 -1.8165
-5.5228 -7.52392 -1.81421
-5.54535 -7.50732 -1.81421
-5.5683 -7.47563 -1.81192
-5.60248 -7.4746 -1.81574
-5.63233 -7.45213 -1.81574
-5.66654 -7.45082 -1.81955
-5.67575 -7.41664 -1.81536
-5.71976 -7.41253 -1.81994
-5.73354 -7.38448 -1.81726
-5.76425 -7.36304 -1.81765
-5.78024 -7.338 -1.81574
-5.82175 -7.33019 -1.81955
-5.86333 -7.33723 -1.82566
-5.89755 -7.31984 -1.82719
-5.9368 -7.32346 -1.83253
-5.96604 -7.29966 -1.83253
-5.98791 -7.28173 -1.83253
-6.01699 -7.25772 -1.83253
-6.03874 -7.23963 -1.83253
-6.06765 -7.21542 -1.83253
-0.929878 -0.742153 -0.231261
-0.901337 -0.714958 -0.223628
-0.913448 -0.718631 -0.225918
-0.859921 -0.672353 -0.21218
-0.862604 -0.668908 -0.21218
-0.91509 -0.595092 -0.21218
-0.600258 0.054416 -0.117157
-0.580963 0.152937 -0.116775
-0.542415 0.145112 -0.109143
-0.511657 0.138529 -0.103037
-0.495955 0.13641 -0.0999839
-0.514458 0.14316 -0.1038
-0.517659 0.146285 -0.104563
-0.520994 0.148916 -0.105327
-0.516623 0.149905 -0.104563
-0.576454 0.169142 -0.116775
-8.22019 3.75412 -1.75659
-8.18749 3.76891 -1.75201
-8.1403 3.78672 -1.74514
-8.09335 3.79446 -1.73751
-8.09231 3.83353 -1.74056
-8.07014 3.85271 -1.73827
-8.07588 3.8952 -1.74285
-8.07652 3.92541 -1.74552
-8.05899 3.95682 -1.74514
-8.04533 3.98011 -1.74476
-8.0311 4.01314 -1.74514
-8.02078 4.0381 -1.74552
-8.02088 4.06836 -1.74819
-8.01153 4.10399 -1.74972
-8.00268 4.1298 -1.75048
-7.9948 4.16632 -1.75239
-7.96662 4.18207 -1.74896
-7.9585 4.2185 -1.75086
-7.93888 4.23866 -1.74934
-7.8994 4.25827 -1.74438
-7.88486 4.28101 -1.74399
-7.87456 4.31629 -1.74552
-7.8547 4.3361 -1.74399
-7.82529 4.3608 -1.74132
-7.80361 4.37945 -1.73941
-7.76895 4.40095 -1.7356
-7.74548 4.4184 -1.73331
-7.73115 4.45131 -1.73407
-7.68209 4.4538 -1.72606
-6.78534 3.96115 -1.52724
-7.61013 4.48355 -1.7169
-7.6034 4.51037 -1.71843
-7.55834 4.52461 -1.71232
-7.50994 4.53653 -1.70545
-7.49126 4.55598 -1.70431
-7.46919 4.57331 -1.7024
-7.43747 4.59489 -1.69934
-7.40865 4.60785 -1.69591
-7.37519 4.62806 -1.69248
-7.35132 4.64387 -1.69019
-7.32937 4.67113 -1.68942
-7.31723 4.70466 -1.69095
-7.29814 4.72339 -1.6898
-7.2494 4.72276 -1.68179
-7.21404 4.74094 -1.67797
-7.19651 4.76039 -1.67721
-7.17414 4.78696 -1.67645
-7.15486 4.80518 -1.6753
-7.1177 4.82164 -1.67111
-7.10321 4.84298 -1.67111
-7.10807 4.87759 -1.67568
-7.08528 4.90375 -1.67492
-7.01061 4.92501 -1.66538
-6.98285 4.94734 -1.66347
-6.95039 4.95573 -1.65928
-6.91157 4.95939 -1.65355
-6.89167 4.987 -1.65355
-6.87827 5.00881 -1.65393
-6.85501 5.03396 -1.65317
-6.83009 5.05783 -1.65202
-6.81174 5.07595 -1.65126
-6.7902 5.09165 -1.64973
-6.75255 5.10575 -1.64554
-6.70283 5.09983 -1.63714
-6.66991 5.11704 -1.63409
-6.63899 5.12503 -1.63027
-6.61379 5.14793 -1.62913
-6.5875 5.15927 -1.62646
-6.53599 5.16125 -1.61882
-6.51741 5.17839 -1.61806
-6.5089 5.21424 -1.62111
-6.47641 5.22019 -1.61692
-6.44481 5.23738 -1.61424
-6.40628 5.23805 -1.60852
-6.37012 5.25115 -1.6047
-6.31656 5.2389 -1.59516
-6.3317 5.29435 -1.60432
-6.29476 5.29563 -1.59898
-6.26835 5.30561 -1.59631
-6.24409 5.32809 -1.59554
-6.22808 5.3468 -1.59554
-6.18883 5.35625 -1.59097
-6.17273 5.37479 -1.59097
-6.12705 5.36742 -1.58333
-6.12172 5.40618 -1.58753
-6.09124 5.42279 -1.58524
-6.0691 5.4358 -1.58371
-6.04148 5.45477 -1.58219
-6.01491 5.46363 -1.57952
-5.99156 5.48632 -1.57914
-5.96641 5.49629 -1.57685
-5.95157 5.52679 -1.57875
-5.92923 5.53926 -1.57723
-5.89845 5.55485 -1.57494
-5.87891 5.56982 -1.57417
-5.85507 5.58066 -1.57227
-5.83694 5.60812 -1.57341
-5.80457 5.61059 -1.56921
-5.77223 5.62418 -1.56654
-5.74412 5.63047 -1.56349
-5.71178 5.64375 -1.56082
-5.70039 5.66639 -1.56234
-5.65271 5.66413 -1.55547
-5.63017 5.67549 -1.55395
-5.59089 5.68118 -1.54937
-5.57383 5.69792 -1.54937
-5.55236 5.72158 -1.54975
-5.51063 5.71278 -1.54288
-5.47688 5.72343 -1.53983
-5.45157 5.7313 -1.53754
-5.41512 5.73878 -1.53372
-5.37639 5.73209 -1.52762
-5.35114 5.73957 -1.52533
-5.32147 5.75373 -1.52342
-5.27187 5.74603 -1.51579
-5.24403 5.75022 -1.51273
-5.20649 5.75513 -1.50854
-5.16689 5.74591 -1.50205
-5.13785 5.74821 -1.49861
-5.10179 5.75403 -1.4948
-5.0936 5.77962 -1.49747
-5.0601 5.78812 -1.49442
-5.01761 5.78607 -1.48869
-4.98357 5.78176 -1.48373
-4.96492 5.79519 -1.48335
-4.93153 5.80304 -1.4803
-4.90777 5.81031 -1.47839
-4.8681 5.81033 -1.47343
-4.82426 5.79323 -1.46541
-4.7898 5.79885 -1.46198
-4.76864 5.80865 -1.46083
-4.73421 5.81397 -1.4574
-4.70069 5.80831 -1.45244
-4.66022 5.80563 -1.4471
-4.64523 5.82265 -1.44786
-4.61459 5.83195 -1.44557
-4.58615 5.83188 -1.44213
-4.55192 5.83625 -1.4387
-4.53199 5.84677 -1.43794
-4.50617 5.86174 -1.43717
-4.47545 5.85807 -1.43298
-4.44961 5.8728 -1.43221
-4.4308 5.88455 -1.43183
-4.40722 5.90223 -1.43183
-4.3895 5.91542 -1.43183
-4.35542 5.90644 -1.42649
-4.33176 5.92382 -1.42649
-4.29781 5.91455 -1.42115
-4.26723 5.92214 -1.41886
-4.24373 5.92693 -1.41695
-4.20862 5.92785 -1.41313
-4.18629 5.93403 -1.41161
-4.15465 5.93947 -1.40893
-4.13905 5.95513 -1.4097
-4.10963 5.96355 -1.40779
-4.08728 5.96938 -1.40626
-4.06006 5.98081 -1.40512
-4.03332 5.97994 -1.40206
-4.00173 5.9846 -1.39939
-3.97072 5.97695 -1.39481
-3.93706 5.97803 -1.39138
-3.90514 5.96846 -1.38642
-3.87055 5.96756 -1.3826
-3.85263 5.97915 -1.3826
-3.82657 5.9912 -1.38184
-3.80437 5.99602 -1.38031
-3.77513 6.00288 -1.3784
-3.7519 6.00585 -1.3765
-3.72973 6.01041 -1.37497
-3.70668 6.02695 -1.37535
-3.68357 6.04341 -1.37573
-3.65119 6.03092 -1.37039
-3.61895 6.03201 -1.36734
-3.5918 6.02766 -1.3639
-3.55069 6.01324 -1.35742
-3.53164 6.02217 -1.35703
-3.51652 6.03783 -1.35818
-3.47664 6.02464 -1.35207
-3.44569 6.02657 -1.3494
-3.42469 6.03175 -1.34826
-3.40658 6.042 -1.34826
-3.38047 6.05215 -1.34749
-3.35278 6.0451 -1.34368
-3.32006 6.04297 -1.34024
-3.28593 6.02361 -1.33375
-3.25663 6.01272 -1.32918
-3.23162 6.02397 -1.32879
-3.20154 6.01111 -1.32383
-3.18296 6.03429 -1.32612
-3.15938 6.03337 -1.32383
-3.13161 6.03899 -1.32231
-3.10988 6.04138 -1.32078
-3.0741 6.03103 -1.31582
-3.05688 6.04198 -1.3162
-3.02741 6.04362 -1.31391
-3.01277 6.05971 -1.31544
-2.98157 6.05762 -1.31238
-2.96424 6.0683 -1.31277
-2.93396 6.06774 -1.31009
-2.90895 6.06235 -1.30704
-2.87373 6.05089 -1.30208
-2.85473 6.0577 -1.3017
-2.82716 6.06196 -1.30017
-2.80071 6.0526 -1.29636
-2.77158 6.05304 -1.29407
-2.74691 6.04703 -1.29101
-2.72109 6.05438 -1.29025
-2.68373 6.01949 -1.28109
-2.65804 6.02658 -1.28033
-2.64153 6.03812 -1.28109
-2.60955 6.03062 -1.27728
-2.5899 6.03482 -1.27651
-2.56871 6.03533 -1.27499
-2.54074 6.03651 -1.27308
-2.52186 6.0423 -1.2727
-2.49168 6.03782 -1.26964
-2.46761 6.03073 -1.26659
-2.442 6.03691 -1.26583
-2.41364 6.0187 -1.26048
-2.38376 6.0137 -1.25743
-2.35422 5.99159 -1.25133
-2.33308 6.00828 -1.25285
-2.3094 6.0006 -1.2498
-2.28538 6.00979 -1.2498
-2.26873 6.02029 -1.25056
-2.23641 6.00724 -1.24598
-2.21838 6.01392 -1.24598
-2.19229 6.01721 -1.24484
-2.16823 6.00714 -1.2414
-2.14226 5.99144 -1.23682
-2.11828 5.99996 -1.23682
-2.09491 6.01023 -1.23721
-2.07239 6.0035 -1.23453
-2.04456 6.00059 -1.23224
-2.02529 6.00298 -1.23148
-2.00374 6.01848 -1.23301
-1.98445 6.02074 -1.23224
-1.96151 6.01173 -1.22919
-1.93444 6.01019 -1.22728
-1.91103 5.99913 -1.22385
-1.88349 5.99549 -1.22156
-1.86899 6.01236 -1.22385
-1.83688 5.99351 -1.21851
-1.81547 5.98772 -1.21622
-1.79544 6.0081 -1.21889
-1.7724 5.99651 -1.21545
-1.75224 6.01675 -1.21812
-1.72875 6.00311 -1.21431
-1.69829 5.98732 -1.20973
-1.6798 5.99049 -1.20935
-1.66182 5.99551 -1.20935
-1.63782 6.00211 -1.20935
-1.60973 5.99344 -1.20629
-1.59174 5.99824 -1.20629
-1.56823 6.00646 -1.20668
-1.54677 5.99783 -1.204
-1.52325 6.00587 -1.20439
-1.50093 5.99328 -1.20095
-1.47695 5.99923 -1.20095
-1.46312 6.0208 -1.20439
-1.43492 6.00942 -1.20095
-1.41778 6.01752 -1.20172
-1.39795 6.0141 -1.20019
-1.373 6.01582 -1.19943
-1.35668 6.02757 -1.20095
-1.33255 6.03295 -1.20095
-1.31194 6.02541 -1.19866
-1.28742 6.02869 -1.19828
-1.26488 6.01139 -1.19408
-1.24043 6.01448 -1.1937
-1.22316 6.02202 -1.19446
-1.19983 6.03072 -1.19523
-1.1806 6.02851 -1.19408
-1.1513 6.00619 -1.18874
-1.13328 6.00961 -1.18874
-1.11489 6.01106 -1.18836
-1.09189 6.02126 -1.1895
-1.06539 6.01205 -1.18683
-1.04533 6.00362 -1.18454
-1.02831 6.01253 -1.18569
-1.00522 6.0224 -1.18683
-0.984293 6.00796 -1.1834
-0.960254 6.01185 -1.1834
-0.939175 5.9953 -1.17958
-0.919924 6.03007 -1.18569
-0.900088 6.02115 -1.1834
-0.875149 6.01887 -1.18225
-0.855705 6.01175 -1.18034
-0.830038 6.00346 -1.17805
-0.814391 6.02343 -1.18149
-0.788504 6.01301 -1.17882
-0.772956 6.03483 -1.18263
-0.746877 6.02228 -1.17958
-0.728336 6.0206 -1.17882
-0.71119 6.03055 -1.18034
-0.686618 6.02945 -1.17958
-0.669392 6.03929 -1.18111
-0.644396 6.03411 -1.17958
-0.618649 6.02101 -1.17653
-0.601362 6.03066 -1.17805
-0.578357 6.04474 -1.18034
-0.559677 6.04058 -1.1792
-0.539449 6.01877 -1.17462
-0.514868 6.01501 -1.17348
-0.490644 6.01507 -1.17309
-0.473058 6.02238 -1.17424
-0.454545 6.0179 -1.17309
-0.43019 6.01576 -1.17233
-0.410665 5.99547 -1.16813
-0.386427 5.99315 -1.16737
-0.368205 5.99036 -1.16661
-0.344691 5.99963 -1.16813
-0.32541 5.97711 -1.16355
-0.301499 5.97836 -1.16355
-0.283098 5.96944 -1.16165
-0.259728 5.98229 -1.16393
-0.241226 5.96931 -1.16126
-0.222436 5.94647 -1.15668
-0.198255 5.93553 -1.15439
-0.180388 5.93414 -1.15401
-0.15665 5.93481 -1.15401
-0.138983 5.94115 -1.15516
-0.115255 5.94362 -1.15554
-0.0971664 5.92823 -1.15249
-0.0735257 5.93446 -1.15363
-0.0556483 5.9268 -1.1521
-0.0319407 5.92698 -1.1521
-0.0141409 5.9192 -1.15058
0.00955178 5.92902 -1.15249
0.0272482 5.90933 -1.14867
0.0509698 5.91899 -1.15058
0.0687721 5.92274 -1.15134
0.0862245 5.90091 -1.14714
0.109645 5.89071 -1.14524
0.127401 5.89428 -1.146
0.151027 5.89568 -1.14638
0.169051 5.90698 -1.14867
0.191781 5.87878 -1.14333
0.209417 5.87818 -1.14333
0.232461 5.86553 -1.14104
0.25014 5.86676 -1.14142
0.274428 5.88337 -1.14485
0.291396 5.86879 -1.14218
0.314448 5.85974 -1.14066
0.331803 5.85485 -1.13989
0.349483 5.85578 -1.14027
0.372654 5.85042 -1.13951
0.390073 5.84732 -1.13913
0.412351 5.83004 -1.13608
0.430705 5.84053 -1.13837
0.45513 5.85246 -1.14104
0.472369 5.84715 -1.14027
0.494426 5.82957 -1.13722
0.511741 5.8261 -1.13684
0.535221 5.82596 -1.13722
0.552325 5.82042 -1.13646
0.574829 5.81035 -1.13493
0.591063 5.79688 -1.13264
0.612797 5.78081 -1.12997
0.629498 5.77309 -1.12883
0.654571 5.78808 -1.13226
0.673065 5.79584 -1.13417
0.69226 5.75997 -1.12768
0.709537 5.75786 -1.12768
0.733802 5.76472 -1.12959
0.751854 5.76833 -1.13073
0.772829 5.74971 -1.12768
0.791411 5.75709 -1.12959
0.812232 5.73833 -1.12654
0.830567 5.74364 -1.12806
0.846934 5.73529 -1.12692
0.870458 5.73574 -1.12768
0.887661 5.73311 -1.12768
0.908429 5.71594 -1.12501
0.928713 5.73256 -1.12883
0.949383 5.71525 -1.12615
0.96718 5.71624 -1.12692
0.989031 5.70653 -1.12577
1.00512 5.69773 -1.12463
1.02791 5.69367 -1.12463
1.04498 5.69056 -1.12463
1.06701 5.68247 -1.12387
1.08479 5.6831 -1.12463
1.10526 5.66716 -1.12234
1.12455 5.67537 -1.12463
1.14724 5.67083 -1.12463
1.16464 5.66928 -1.12501
1.18204 5.66769 -1.12539
1.20389 5.65907 -1.12463
1.21879 5.64584 -1.12272
1.24178 5.64284 -1.1231
1.26606 5.64549 -1.12463
1.27864 5.62252 -1.12081
1.29462 5.61483 -1.12005
1.31438 5.59814 -1.11776
1.33298 5.60181 -1.11929
1.35538 5.59644 -1.11929
1.37216 5.59235 -1.11929
1.39357 5.583 -1.11852
1.41176 5.58451 -1.11967
1.43604 5.58642 -1.12119
1.45032 5.57259 -1.11929
1.47059 5.55915 -1.11776
1.49031 5.56609 -1.12005
1.51565 5.57145 -1.12234
1.53236 5.56688 -1.12234
1.55197 5.55125 -1.12043
1.56755 5.54279 -1.11967
1.59025 5.53837 -1.12005
1.60521 5.52791 -1.1189
1.6229 5.52684 -1.11967
1.64387 5.51654 -1.1189
1.65532 5.49467 -1.11547
1.67613 5.48425 -1.11471
1.69374 5.48295 -1.11547
1.71389 5.47051 -1.11432
1.73385 5.47657 -1.11661
1.75035 5.45277 -1.11318
1.76548 5.44376 -1.11242
1.78357 5.42546 -1.11013
1.79922 5.41822 -1.10975
1.81837 5.40354 -1.10822
1.83205 5.39062 -1.10669
1.8619 5.40739 -1.11165
1.88134 5.41105 -1.11356
1.90297 5.40348 -1.11356
1.92443 5.41254 -1.11661
1.9454 5.40296 -1.11623
1.95825 5.38787 -1.11432
1.97508 5.38381 -1.11471
1.99728 5.37771 -1.11509
2.01203 5.36802 -1.11432
2.03488 5.3636 -1.11509
2.04675 5.34647 -1.1128
2.07308 5.35105 -1.11547
2.08698 5.33932 -1.11432
2.11049 5.33641 -1.11547
2.12722 5.33188 -1.11585
2.14191 5.30694 -1.11242
2.16597 5.32049 -1.11661
2.19022 5.31905 -1.11814
2.20391 5.30702 -1.117
2.21982 5.30038 -1.117
2.24177 5.29327 -1.11738
2.26524 5.28967 -1.11852
2.27877 5.27744 -1.11738
2.29616 5.27418 -1.11814
2.31724 5.26496 -1.11814
2.32824 5.24722 -1.11585
2.35805 5.25757 -1.12005
2.37543 5.25405 -1.12081
2.39235 5.23557 -1.1189
2.40722 5.22659 -1.11852
2.42645 5.21336 -1.11776
2.44375 5.20961 -1.11852
2.47129 5.21399 -1.12158
2.48862 5.21009 -1.12234
2.52053 5.22308 -1.1273
2.52589 5.19431 -1.12272
2.55357 5.19826 -1.12577
2.57089 5.1941 -1.12654
2.58734 5.18812 -1.12692
2.60189 5.16545 -1.12425
2.61649 5.15587 -1.12387
2.6353 5.14187 -1.1231
2.65431 5.14092 -1.12463
2.68212 5.14419 -1.12768
2.69023 5.12221 -1.12463
2.7107 5.11141 -1.12463
2.72972 5.11018 -1.12615
2.75201 5.10268 -1.12692
2.77386 5.10648 -1.12959
2.78955 5.08673 -1.12768
2.801 5.07147 -1.12615
2.81238 5.05618 -1.12463
2.84316 5.06372 -1.12883
1.1702 2.06958 -0.462139
2.8834 5.05222 -1.13073
2.89072 5.02993 -1.12768
2.91869 5.03191 -1.13073
2.92981 5.01635 -1.12921
2.94986 5.00459 -1.12921
2.96285 4.99235 -1.12844
2.98078 4.97709 -1.12768
2.9957 4.96812 -1.12768
3.02167 4.96616 -1.12997
3.0345 4.95373 -1.12921
3.05223 4.93821 -1.12844
3.06496 4.9257 -1.12768
3.09403 4.92836 -1.13112
3.1088 4.91906 -1.13112
3.13479 4.91651 -1.13341
3.14528 4.90048 -1.13188
3.15784 4.88772 -1.13112
3.18379 4.88492 -1.13341
3.20059 4.87863 -1.13417
3.22008 4.86579 -1.13417
3.23031 4.84957 -1.13264
3.25406 4.84313 -1.13417
3.28177 4.85286 -1.13875
3.30558 4.84618 -1.14027
3.32677 4.84596 -1.14256
3.33495 4.81647 -1.13875
3.3449 4.8 -1.13722
3.36858 4.79301 -1.13875
3.39655 4.80211 -1.14333
3.41345 4.78529 -1.14256
3.42093 4.76546 -1.14027
3.43176 4.7504 -1.13913
3.45651 4.74457 -1.14104
3.47073 4.73418 -1.14104
3.49197 4.72342 -1.1418
3.4991 4.70347 -1.13951
3.52024 4.69258 -1.14027
3.5343 4.68199 -1.14027
3.553 4.66782 -1.14027
3.57415 4.66649 -1.14256
3.59999 4.66148 -1.14485
3.61155 4.64756 -1.14409
3.62668 4.63825 -1.14447
3.64034 4.61754 -1.14295
3.6737 4.63121 -1.14905
3.68729 4.61034 -1.14753
3.69618 4.59314 -1.146
3.72442 4.59052 -1.14905
3.74314 4.58541 -1.15058
3.7627 4.57191 -1.15096
3.76513 4.547 -1.14753
3.77574 4.52286 -1.14524
3.80192 4.52654 -1.14905
3.82634 4.51879 -1.15096
3.84115 4.50878 -1.15134
3.86939 4.5053 -1.15439
3.88545 4.49664 -1.15516
3.89309 4.46922 -1.1521
3.91166 4.46343 -1.15363
3.91778 4.4345 -1.1502
3.93237 4.4242 -1.15058
3.96314 4.42305 -1.15439
3.98953 4.42573 -1.15821
4.00016 4.41083 -1.15745
4.01777 4.39479 -1.15745
4.02828 4.37983 -1.15668
4.04309 4.3608 -1.15592
4.06151 4.3544 -1.15745
4.08697 4.3467 -1.15974
4.11078 4.34583 -1.16279
4.12 4.32083 -1.1605
4.13023 4.30561 -1.15974
4.14585 4.29603 -1.1605
4.16301 4.27941 -1.1605
4.18559 4.26833 -1.16203
4.20113 4.25855 -1.16279
4.20983 4.23336 -1.1605
4.23084 4.22904 -1.16279
4.24493 4.20932 -1.16203
4.26034 4.19932 -1.16279
4.28133 4.19476 -1.16508
4.27555 4.15571 -1.15897
4.30494 4.15923 -1.16355
4.32154 4.14198 -1.16355
4.34106 4.13577 -1.16546
4.37326 4.13321 -1.16966
4.38564 4.12007 -1.16966
4.4107 4.11052 -1.17195
4.42878 4.10261 -1.17348
4.46105 4.09947 -1.17767
4.45739 4.07151 -1.17348
4.47249 4.06076 -1.17424
4.50182 4.05466 -1.17767
4.52128 4.04768 -1.17958
4.53597 4.02826 -1.1792
4.55392 4.01983 -1.18073
4.56848 4.00029 -1.18034
4.58787 3.99301 -1.18225
4.6261 3.99387 -1.18798
4.66338 4.00171 -1.19446
4.65244 3.96012 -1.1876
4.6643 3.94615 -1.1876
4.68005 3.92746 -1.1876
4.68277 3.90585 -1.18531
4.70289 3.89085 -1.18645
4.70848 3.87173 -1.18492
4.70719 3.83922 -1.18073
4.73089 3.83497 -1.18378
4.75384 3.82217 -1.18569
4.75915 3.80298 -1.18416
4.85125 3.84489 -1.20324
4.84426 3.81574 -1.19866
4.86187 3.80603 -1.20019
4.87395 3.78415 -1.19943
4.89616 3.7779 -1.2021
4.9128 3.75948 -1.20248
4.91155 3.73522 -1.19943
4.91391 3.70608 -1.19637
4.94386 3.70546 -1.20095
4.94919 3.67862 -1.19866
4.92546 3.6381 -1.19027
4.9635 3.61277 -1.19332
4.97792 3.59289 -1.19332
4.95587 3.50214 -1.17958
5.04027 3.53916 -1.19714
5.0705 3.53019 -1.20095
5.09075 3.52166 -1.20324
5.09185 3.49239 -1.20019
5.10554 3.47931 -1.20095
5.13894 3.47205 -1.20553
5.13955 3.45005 -1.20324
5.22175 3.48254 -1.22003
5.31261 3.51252 -1.23797
5.32169 3.48801 -1.23682
5.3239 3.46667 -1.23492
5.34103 3.44748 -1.23568
5.35961 3.43674 -1.23759
5.37165 3.41422 -1.23721
5.39017 3.40333 -1.23911
5.41034 3.39341 -1.2414
5.43054 3.37588 -1.24293
5.4206 3.3472 -1.23835
5.41385 3.31319 -1.23377
5.40027 3.28266 -1.22843
5.4269 3.27659 -1.23224
5.4804 3.27905 -1.2414
5.53063 3.27913 -1.2498
5.54044 3.26252 -1.2498
5.54666 3.23638 -1.24827
5.6107 3.25122 -1.26048
5.5932 3.21871 -1.25438
5.6555 3.22451 -1.26545
5.67027 3.21043 -1.26659
5.66765 3.17908 -1.26316
5.66859 3.15728 -1.26125
5.66227 3.12415 -1.25705
5.694 3.11941 -1.26201
5.73921 3.1144 -1.26926
5.72433 3.08414 -1.26392
5.68986 3.03626 -1.25362
5.67118 3.00447 -1.24751
5.7075 2.99453 -1.25285
5.71994 2.97921 -1.25362
5.72832 2.9545 -1.25285
5.74764 2.94267 -1.25514
5.78095 2.93787 -1.26048
5.91191 2.97473 -1.28643
5.95593 2.97452 -1.29407
5.91499 2.92457 -1.28262
5.99776 2.94314 -1.29865
1.67941 0.815776 -0.362919
6.09249 2.93689 -1.31467
6.06166 2.8922 -1.30552
6.08628 2.88157 -1.30895
6.10665 2.86136 -1.31086
6.13301 2.85131 -1.31467
6.22641 2.8645 -1.33223
6.26712 2.86048 -1.3391
6.27389 2.84086 -1.33872
6.28878 2.81734 -1.33948
6.32412 2.81042 -1.3452
6.31374 2.77562 -1.34062
6.31484 2.75353 -1.3391
6.33301 2.73136 -1.34062
6.37187 2.72547 -1.34711
6.42973 2.71985 -1.35703
2.70658 1.13535 -0.570519
6.41416 2.66048 -1.34978
6.433 2.64571 -1.35207
6.54999 2.67088 -1.37497
6.58975 2.6564 -1.38108
6.54664 2.61622 -1.37039
6.54245 2.58424 -1.36734
6.54652 2.56317 -1.36657
6.55855 2.53767 -1.36696
6.57163 2.5201 -1.3681
6.59634 2.49935 -1.37115
6.61117 2.48231 -1.37268
6.66522 2.47224 -1.38184
6.73157 2.4739 -1.39405
6.78201 2.46169 -1.40245
6.87805 2.47322 -1.42076
6.93969 2.46408 -1.43145
7.00631 2.4641 -1.44366
7.08659 2.46052 -1.45816
7.1385 2.45457 -1.46732
7.14583 2.43314 -1.46732
7.13131 2.39641 -1.46236
7.11425 2.36695 -1.4574
7.10501 2.33235 -1.45358
7.11944 2.31345 -1.45511
7.11555 2.28076 -1.45244
7.10178 2.25287 -1.44824
7.08825 2.21742 -1.44366
7.09487 2.19614 -1.44366
7.09045 2.16373 -1.44099
7.08751 2.13961 -1.43908
7.07908 2.10621 -1.43565
7.07407 2.08164 -1.43336
7.06914 2.0495 -1.43069
7.0828 2.03044 -1.43221
7.07186 2.00437 -1.42878
7.05524 1.9692 -1.42382
7.04598 1.94385 -1.42076
