# .PCD v0.7 - Point Cloud Data file format
VERSION 0.7
FIELDS x y z
SIZE 4 4 4
TYPE F F F
COUNT 1 1 1
WIDTH 1679
HEIGHT 1
VIEWPOINT 0 0 0 1 0 0 0
POINTS 1679
DATA ascii
42348700 1404457.9 79955.141
42361152 1401836.5 79299.773
42448972 1216366.2 68813.82
42471908 1184909.2 66847.758
42488948 1165248 65537
42411616 1390036.4 77988.844
42501400 1182290.6 66192.547
42434552 1389381.2 77333.492
42444384 1392661.2 77333.656
42456180 1390695.1 77333.656
42466664 1390039.8 76678.289
42471908 1407079.2 77333.648
42473876 1435260 78644.391
42474528 1466062.5 80610.5
42476496 1496209.5 81921.242
42470596 1551915.9 84542.719
42472564 1586650.5 86508.828
42473876 1622040.5 88474.93
42475184 1660051.9 90441.039
42476496 1694131.2 91751.789
42488292 1697408.2 91751.797
42481084 1825205.1 98305.492
42482396 1873702.5 100926.96
42488948 1905160.5 102237.72
42502056 1908437.1 102237.71
42504676 1960866.6 104859.18
42506644 2016573 108136.02
42057060 4681963.5 249695.97
42091136 4681308 249040.59
42125216 4679997 249040.59
42159952 4676065 248385.23
42193376 4676065 247729.88
42226800 4678686.5 247729.86
42612156 4598076.5 241176.2
42863820 1354649.8 70779.961
42873648 1353339.1 70779.961
42883480 1346130.1 70124.602
42896588 1653498.5 86508.844
42900520 1957590.2 102237.72
42924112 2256439 117966.6
42938532 2559875.2 133695.48
77335.82 1027019.2 53743.199
127141.59 1053179.5 55051.078
133040.09 1038761.9 54395.738
143525.98 1037450.8 54395.711
201853.95 1323847.9 70124.609
175639.59 1034178.1 54395.93
188091.12 1036140 55051.078
294916.38 1291079 68813.859
316543.44 1326468.4 71435.289
268701.31 1016477.8 55051.012
282464.41 1023688 55051.09
303436.22 1041382.9 56361.82
309334.59 1034829.3 56361.82
311300.81 1016479.2 55706.469
332272.5 1058422.5 57672.559
338826.19 1052524.1 57672.551
496115 1319259.8 73401.438
586554.56 1319258.9 75367.469
562308.62 1023691.3 60949.59
575414.88 1032207.8 61604.781
582624 1027620.4 61604.789
600318.81 1032863.1 62260.148
598353.19 989609.44 60294.078
750398.56 1036795.6 66847.75
799551.31 1088569.5 70779.953
760884.69 1021066.8 66192.391
791686.38 1047280.6 68813.797
779235 1015168.3 66847.75
816590.69 1027619.8 68813.82
844771.56 1024343.1 69469.203
1394619 1522416.5 108135.44
1392661.2 1499486.8 106825.32
1395938 1485068.5 106825.3
1387418.5 1414944.8 103548.5
1386762.9 1393972.1 102893.09
1381520 1369723.5 101582.36
1395282.6 1364480.4 102237.71
1411666.9 1361203.5 102237.72
1431328 1361203.5 102893.09
1451644.4 1361203.5 104203.82
1482446.6 1370378.5 105514.55
1495554.2 1363169.8 105514.58
1535531.5 1380209 108136.02
1551916.1 1378243.1 108791.41
1576164.8 1380209.2 109446.78
1578130.9 1362514.4 108791.42
1615486.6 1363824.9 110757.51
1626628.2 1356616 110757.53
1649566.1 1356615.9 111412.9
1670538 1353994.4 112723.63
1827824.8 1457541.2 121898.68
1846832.4 1454266 123209.54
1877635 1445746.2 123864.93
1905160.4 1445746.2 125175.66
2281337.5 1695438.4 148768.62
2252507 1625318.4 145492.19
1892053.1 1345474.8 121243.45
2247258.5 1564364.9 143525.7
2235467.2 1520458.6 141559.94
2257094 1266178.6 135006.31
2261026.5 1186220.9 133695.52
2247263.8 1159349.8 132384.75
1587962.6 42176992 154012.03
1549295.1 42168472 151390.52
1610243.8 42109488 158599.5
1458200.2 42169780 144181.59
1502107.2 42119320 150079.64
1447713 42130460 145492.19
1452955.2 42106212 146802.88
1402499.6 42116692 142216.09
1167214 42245152 119277.33
1163937.1 42235976 119277.34
1161971 42226144 119277.34
1159349.6 42216312 119932.71
1156728.1 42206484 119932.71
1154762 42196652 120588.07
1696089.2 41826376 177604.41
1666606.1 41828992 175639.17
1639736 41830300 173673.06
1614176.5 41830956 171706.95
1589927.9 41831612 169740.84
1563713 41833576 167774.73
1540775 41833576 166463.98
1517181.8 41836856 164497.88
1494899.1 41836856 162531.78
1471305.8 41838164 161221.03
1449678.6 41838164 159254.94
1428051.4 41838820 157944.19
1406424.1 41840132 156633.44
1386107.8 41840132 155322.7
1364480.5 41841444 153356.59
1344819.4 41842096 152045.84
1323847.5 41844064 150735.11
1306152.5 41842752 149424.38
1286491.5 41844064 148113.62
1268141.1 41844720 146802.89
1249135.4 41845376 145492.16
1229474.2 41846684 144181.41
1214400.8 41847996 142870.67
1195395 41849308 141559.94
1177700 41849964 140904.56
1161971.1 41849964 139593.81
1144931.5 41850616 138283.08
1127891.9 41851928 137627.7
1111507.6 41851928 136316.97
1095778.8 41852584 135661.59
1080705.2 41852584 134350.86
1064321 41853896 133040.12
1049247.5 41853896 132384.75
1033518.6 41855204 131729.38
1019100.4 41855204 130418.64
1004682.3 41855860 129763.27
989608.81 41856516 128452.53
975846.06 41856516 127797.16
961427.94 41857172 127141.79
948320.5 41858480 126486.41
935213.06 41858480 125175.68
920794.94 41860448 124520.31
908342.94 41859792 123864.94
893924.81 41859792 123209.56
881472.75 41861104 122554.19
869020.69 41861104 121243.46
855913.31 41861760 120588.09
623257 42146188 88474.969
614737.12 42145532 88474.953
608183.38 42142256 88474.938
607528 42131772 89130.312
794305.56 41864384 117310.8
782511.88 41864380 116655.87
770715.25 41865036 116000.5
758918.56 41865692 115345.13
747777.25 41865692 114689.76
735325.25 41867000 114034.39
724839.31 41866348 114034.38
713042.69 41867000 113379.01
702556.75 41867000 112723.64
692726.19 41868312 112068.27
682240.25 41868312 111412.91
671098.94 41868968 110757.54
660613.06 41869624 110757.53
650127.12 41869624 110102.16
639641.19 41869624 109446.79
629155.25 41870280 108791.43
618014 41871588 108136.06
608183.44 41871588 108136.05
597697.5 41872244 107480.68
588522.38 41871588 107480.68
578036.44 41872900 106825.31
568205.88 41872900 106169.94
558375.31 41873556 105514.58
548544.75 41874868 105514.57
539369.56 41873556 104859.2
529539.06 41874868 104859.2
521674.59 41874212 104203.83
511844.03 41875520 103548.47
502668.84 41875520 103548.46
494149.03 41874868 102893.1
483663.12 41876832 102893.09
474487.94 41876832 102237.72
465968.12 41877488 102237.72
456137.59 41878144 101582.35
447617.78 41877488 101582.35
437787.25 41880108 100926.98
429267.44 41879452 100926.98
420747.62 41878800 100271.62
412227.81 41878800 100271.61
403708 41878800 99616.25
394532.81 41880108 99616.242
386668.38 41880108 98960.867
377493.19 41880764 98960.867
370284.12 41881420 98960.867
361764.31 41882076 98305.5
353244.5 41882732 98305.5
345380.03 41881420 97650.133
336860.25 41882076 97650.133
328340.44 41882732 97650.133
320475.97 41882732 96994.758
311300.81 41884696 96994.758
304091.72 41883384 96994.758
295571.91 41884696 96339.391
287052.12 41885352 96339.391
279843.03 41884040 96339.391
271323.25 41885352 95684.023
263458.81 41884696 95684.023
255594.38 41885352 95684.023
247729.92 41886008 95028.648
239865.48 41886008 95028.648
232656.41 41887972 95028.648
224791.95 41887320 95028.648
216927.52 41887320 94373.281
209063.08 41887972 94373.281
201854.02 41887320 94373.281
193334.2 41889284 93717.922
186125.12 41889284 93717.906
178260.69 41889284 93717.906
170396.25 41889284 93717.906
163187.19 41888628 93717.906
155322.73 41890596 93062.547
147458.3 41889940 93062.539
140249.23 41889940 93062.539
132384.81 41890596 93062.539
125175.73 41890596 93062.539
117311.3 41891252 93062.539
110102.22 41891904 93062.539
102237.79 41892560 92407.18
95028.711 41893216 92407.172
87164.281 41892560 92407.172
79955.203 41893216 92407.172
72746.133 41893216 92407.172
64881.699 41893872 92407.172
58327.98 41893872 92407.172
51118.91 41894528 92407.172
43909.84 41895184 91751.812
36700.762 41895184 91751.797
28836.33 41894528 91751.797
21627.26 41895840 91751.797
14418.19 41895840 91751.797
6553.75 41896492 91751.797
0.059999999 41896492 91751.797
42942464 41895840 91751.797
42935256 41897148 91751.797
42927392 41897148 91751.797
42920180 41897804 91751.797
42912972 41897804 91751.797
42905764 41899116 91751.797
42898556 41899772 91751.797
42890688 41899116 91751.797
42883480 41901080 91751.797
42876272 41900424 91751.797
42869064 41901736 91751.797
42862508 41901080 91751.797
42855300 41901080 91751.797
42848092 41901736 91751.797
42840228 41901080 91751.797
42833016 41902392 91751.797
42825808 41903048 91751.797
42817944 41901080 92407.156
42810736 41903048 92407.172
42803524 41902392 92407.172
42795660 41903048 92407.172
42788452 41903704 92407.172
42781244 41903704 92407.172
42773380 41905668 92407.172
42766168 41904356 92407.172
42758304 41905012 92407.172
42751096 41905668 92407.172
42743232 41905012 93062.539
42736024 41906980 93062.539
42729468 41905668 93062.539
42720948 41907636 93062.539
42714396 41908292 93062.539
42706532 41906980 93062.539
42699320 41908292 93717.898
42691456 41908292 93717.906
42683592 41908292 93717.906
42676384 41908292 93717.906
42667864 41908292 94373.273
42660656 41909600 94373.273
42652792 41910256 94373.281
42644924 41910256 94373.281
42637716 41910912 94373.281
42629196 41910256 95028.641
42621988 41912876 95028.648
42614124 41912876 95028.648
42606260 41913532 95028.648
42599052 41912224 95684.023
42591184 41912224 95684.023
42683592 42196652 69469.227
42679004 42200584 69469.219
42673764 42203860 69469.219
42667864 42203860 69469.219
42658688 42194688 70779.953
42542688 41915500 96994.758
42627232 42146844 75367.562
42623300 42153400 74712.188
42630508 42186824 72090.711
42627232 42192720 71435.344
42621988 42195996 71435.328
42615436 42195344 72090.688
42407028 41747076 115344.47
42397196 41747724 115345.12
42386712 41748380 116000.48
42376880 41749036 116000.49
42367048 41749036 116655.85
42356564 41750344 116655.86
42346732 41750344 117311.22
42336904 41749692 117311.23
42327072 41751000 117966.6
42316584 41751656 117966.6
42306100 41752312 118621.97
42295612 41752968 119277.33
42284472 41752312 119277.34
42274644 41753624 119932.38
42263500 41754280 120588.07
42253016 41755588 120588.08
42241872 41755588 121243.44
42230076 41755588 121898.81
42219592 41756900 121898.82
42342144 41971856 100271.95
42333624 41973828 100926.98
42329692 41982348 100271.61
42320516 41983004 100926.98
42323140 42002008 98960.859
42314620 42003320 99616.203
42302824 41998076 100271.6
42285128 41987588 102237.7
42289060 42006596 100271.61
41980380 41587160 146147.52
42296920 42044600 97650.867
42302824 42066236 95684.023
42311996 42091792 93062.57
42336900 42137012 88475.023
42262192 42051160 98960.812
42322480 42141596 89131.172
42319208 42149468 89130.18
42314620 42154712 88474.82
42291680 42138324 91096.406
42293648 42151432 89785.703
42311344 42184856 87164.211
42294304 42175024 88474.906
42304788 42197964 86508.844
42291028 42192720 87819.562
42275296 42186168 89130.297
42272676 42193376 88474.953
42264156 42194688 89130.312
42259568 42200584 89130.32
41755596 41671056 152700.23
42350008 42316584 76022.922
42340180 42313308 76678.289
42313308 42294960 79299.742
42296924 42288404 81265.859
41688752 41688096 155976.91
41680876 41697916 155978.05
41304052 41348620 200541.39
41305348 41372852 199232.48
41306004 41395136 197921.75
41306004 41416764 196611.02
41307316 41439700 194644.91
41307972 41460672 193334.16
41307972 41481644 192678.8
41309280 41503928 190712.69
42279228 42367048 77333.656
42270056 42367704 77989.023
42265468 42371636 77989.031
42258256 42372948 78644.391
41304708 41595692 186123.44
41305348 41615340 184814.34
41306004 41635656 183503.61
41307316 41655316 182848.23
41307972 41674324 181537.5
41307972 41692016 180882.12
41309280 41711680 179571.39
41309936 41730028 178260.66
41309936 41747724 177605.28
41309936 41765420 176949.91
41311248 41783768 175639.17
41311904 41800808 174983.8
41313868 41819816 173673.06
41312560 41835544 173017.69
41313216 41852584 172362.31
41314524 41870280 171051.58
41314524 41886664 170396.2
41316492 41901736 169740.83
41314524 41918776 169085.45
41315836 41935160 167774.73
41317148 41952200 167119.34
41316492 41967272 166463.98
41304040 41973172 167119.34
41279792 41974484 169085.44
41254232 41975136 171051.55
41231292 41978416 172362.3
41203768 41979068 174328.41
41177552 41980380 176294.52
41150028 41981692 178260.62
41122500 41983656 180226.73
41093664 41984312 182848.2
41064828 41986280 184814.33
41035336 41988244 187435.8
41003880 41988900 189401.92
40972420 41990868 192023.39
40946208 41995456 193989.52
40902952 41992176 197266.34
40867564 41990868 200543.19
40832828 41992832 203164.69
40814476 42002664 203820.06
40743696 41989556 210373.75
40703720 41990868 213650.59
40689300 42003320 214305.98
40624420 41995456 219548.88
40583788 41998076 222825.77
40552328 42004628 225447.27
40534636 42017080 226102.64
40448128 42003976 233967.05
40411424 42009872 236588.55
40397008 42024944 237243.94
40301980 42011184 245763.7
40271176 42021668 247729.84
40195152 42017080 254283.47
40141412 42020360 258215.75
40125684 42034120 259526.52
40026068 42024292 268046.31
39989368 42035432 270667.81
39894996 42029532 278532.12
39851084 42040020 282464.47
39758676 42037400 290328.78
39708868 42047228 294261.12
39574520 42049852 305402.25
41470472 42576104 133042.73
39298640 42054444 328337.38
39154428 42062956 340792.22
41576672 42683592 121898.83
40263988 42610848 236586.81
40147312 42635752 246419
40107988 42651480 249695.95
40390452 42753716 224136.48
39833388 2070313.1 327029.59
41459364 1409042 178915.73
41482956 1406424 177605.28
41505236 1404457.9 176294.55
41524244 1403147.1 174983.8
41545872 1401181.1 173017.69
41566844 1402491.8 171706.95
41586504 1399215 170396.2
41606164 1397904.2 169085.47
41625824 1397248.9 168430.09
41646140 1395282.8 167119.36
41847340 1196705.5 142215.3
41683496 1393972 164497.88
41699884 1395282.8 163842.5
41720200 1392002.6 161876.02
41855204 1257657.1 145492.39
41755592 1390693.1 159910.06
41772628 1390695.1 159254.92
41929916 1222265 138938.44
41825712 1366445.8 154667.25
41948924 1234061.8 138938.45
41924020 1282559.1 143526.03
41860448 1382175.4 153356.59
41975792 1254380.1 138938.66
41892564 1380862.8 152045.64
41939092 1336953.8 146147.41
41969896 1314672.4 142870.69
41938436 1377586.9 149424.27
41953512 1376932.4 148113.62
41968584 1375621.6 147458.27
41984968 1373000.2 146802.88
41998732 1374966.2 146147.52
42013148 1373655.5 144836.78
42027568 1373655.5 144181.41
42041984 1372344.8 143526.05
42056404 1371689.4 142870.67
42069512 1372344.8 142215.3
42083928 1370378.8 141559.94
42097692 1369723.2 140904.55
42110800 1369723.2 140249.19
42125216 1368412.6 139593.81
42137668 1369067.9 138938.44
42151432 1368412.5 138283.08
42163228 1366446.5 137627.7
42175680 1366446.5 136972.34
42189444 1364480.4 136316.97
42201896 1364480.4 135661.59
42215660 1361858.9 135006.23
42235976 1346130 133040.11
42237940 1366446.2 134350.84
42239908 1386762.8 136316.94
42243840 1402491.8 136972.33
42256292 1402491.8 136316.97
42268744 1401836.4 136316.95
42280540 1401836.5 135661.59
42293648 1399870.4 135006.22
42305444 1399870.4 134350.86
42317240 1399870.4 134350.84
42329692 1398559.6 133695.48
42340836 1399870.2 133040.12
42353288 1397245.6 132384.45
42446348 1203262.2 114034.66
42376224 1397904.2 131729.38
42388020 1396593.5 131074.02
42397852 1396593.5 131074
42410304 1393969.2 130418.37
42421444 1394627.4 130418.63
42515164 1171801.6 108791.43
42443728 1393972 129763.26
42454212 1394627.4 129107.89
42466008 1392661.2 128452.53
42466008 1424118.5 131073.95
42482392 1409701.4 129763.3
42483704 1438536.9 131729.36
42484360 1471305.4 135006.2
42486980 1500797 136972.31
42486328 1538808.4 140249.16
42481084 1598447 145492.09
42473220 1666605.4 151390.42
42465356 1741972.8 157944.11
42455524 1827170.8 165153.17
42448316 1906470.6 172362.25
42442416 1983804.5 178915.97
42869716 1354649.9 118621.97
42878892 1354649.8 118621.97
42874960 1657426.1 144836.36
42884792 1658086.1 144836.77
42896588 1654154 144836.77
127141.68 1053179.8 92407.18
138938.31 1059733.2 93062.531
216271.47 1212432 107480.46
224136.47 1207847 107480.68
233311.64 1211123.8 107480.68
241176.09 1211123.8 107480.68
249695.91 1211123.8 108136.04
258871.08 1212434.4 108136.04
267390.91 1209813 108136.05
275910.72 1208502.2 108136.05
285085.88 1209813 108136.05
292950.34 1206536.1 108136.05
302780.88 1208502.2 108791.41
311956.06 1209813 108791.42
320475.88 1207846.9 108791.42
288363.34 1055803.4 95684.219
338825.56 1207189.1 109446.57
302125.44 1047936.4 95028.633
304746.94 1031552.2 93717.898
311300.69 1026309.5 93717.906
315888.34 1019755.9 93062.562
386667.31 1201945.9 110101.9
416159.69 1205880.9 111412.9
478419.84 1196050.4 112723.64
500047.25 1201293.2 113379.01
560996.69 1048592.1 103548.47
597697.19 1028275.7 103548.46
728770.94 1049904.9 111413.04
855913.12 1180321.4 127141.78
867053 1180319.5 127796.94
805449.25 1064320.4 116655.79
792341.94 1024342.9 112723.6
832974.44 1016478.4 114689.67
1445746.2 1568300.6 186125.09
1433294.2 1533566 183503.62
1418220.8 1496210 180226.77
1409045.6 1466063 177605.3
1395282.9 1431983.8 174328.45
1386107.6 1402492 172362.33
1377587.8 1374311.1 169740.84
1374310.8 1352028.4 168430.09
1399214.8 1357271.2 170396.19
1420842 1361858.9 171706.94
1441813.9 1362514.2 173017.67
1463441 1363825 174983.78
1489000.4 1368412.5 176949.88
1509972.2 1367757.1 178260.62
1536187.1 1372344.8 180226.73
1557814.4 1372344.8 181537.48
1583373.8 1375621.6 183503.58
1607622.5 1376932.4 184814.33
1751802.1 1397248.6 195955.48
1781950.8 1400525.6 197921.72
1812753.1 1404457.9 200543.2
1841589.5 1409045.5 202509.31
2248574.5 1609588.9 241831.55
1612878.4 42162608 220204.77
1454923.2 42097692 206441.72
1899262.4 41819160 271323.19
1163937.1 42245804 166463.98
1161971 42235976 167119.34
1160004.9 42227456 167774.7
1157383.5 42217624 167774.72
1154762 42207796 168430.08
1153451.2 42197308 169085.45
1671193.8 41833576 246419.14
1645634.2 41833576 243797.66
1620730.2 41833576 241176.19
937844.69 42294296 140250.7
929970.06 42290372 139593.81
1546018 41838820 233311.73
1521114 41840788 230690.27
1498831.4 41840788 228724.16
1477204.1 41840788 226758.03
1452955.5 41842752 224136.56
1432639 41842752 222170.44
1409701 41844064 219548.97
1389384.6 41844064 217582.86
1369723.5 41844064 215616.75
1347440.9 41846684 213650.64
1328435.1 41846684 211684.53
1308774 41847340 209718.42
1272728.6 41849308 206441.56
1253722.9 41849964 204475.45
1236683.2 41849964 203164.7
1217022.2 41851928 201198.59
1198671.9 41852584 199232.48
901133.75 42113420 150735.09
1165903.4 41852584 195955.64
1148208.4 41853896 194644.91
1131824.1 41854548 193334.16
1115439.9 41855204 191368.05
1100366.4 41854548 190057.31
1083326.8 41856516 188746.56
853295.12 42076716 149424.95
1052524.4 41857172 186125.09
1038106.2 41857172 184814.34
912930.56 41975136 163842.52
1007303.8 41859136 182192.88
993541 41859136 180882.12
978467.56 41860448 179571.39
964049.38 41861104 178260.66
952252.69 41861104 177605.27
937834.56 41862416 176294.55
924727.19 41862416 174983.8
910309.06 41863724 173673.06
897857 41863724 173017.69
885404.94 41863068 171706.95
872952.94 41863068 171051.56
623257 42162572 123209.57
614081.75 42163228 122554.19
609494.12 42157332 122554.18
609494.12 42145536 123864.92
595732 42152088 121898.95
587866.94 42151432 121243.45
785130.25 41867008 163841.86
773336.69 41868312 163187.12
761540.06 41868312 161876.41
751709.5 41868968 161221.03
738602.06 41868968 160565.66
728771.5 41870280 159910.28
717630.19 41870280 158599.55
707144.31 41870280 157944.19
694692.25 41872244 157288.8
684206.38 41871588 156633.44
673720.44 41872244 155978.06
663234.5 41872244 155322.69
652093.25 41872900 154011.95
641607.31 41873556 153356.59
631121.38 41874212 152701.22
621290.81 41874212 152045.84
610804.94 41874212 151390.48
600974.38 41874868 150735.11
590488.44 41875520 150079.73
581313.25 41874868 149424.38
570827.38 41875520 148769
560996.81 41876176 148113.62
551821.62 41875520 148113.62
542646.44 41878144 147458.25
532815.88 41878800 146802.88
523640.69 41878144 146147.52
514465.5 41878144 145492.16
505290.34 41878800 144836.78
495459.78 41880108 144181.41
486284.62 41879452 144181.41
477109.41 41880108 143526.03
467934.25 41880108 142870.67
459414.44 41880108 142870.66
450239.28 41880764 142215.3
441064.09 41882076 141559.92
432544.28 41881420 141559.92
423369.09 41882076 140904.55
415504.66 41880764 140249.19
406984.84 41883384 139593.81
398465.03 41882732 139593.81
389289.84 41882732 138938.45
381425.41 41882732 138938.44
372905.59 41884040 138283.06
364385.78 41884696 137627.7
355865.97 41885352 137627.7
348001.53 41884696 137627.7
339481.72 41885352 136972.33
330961.91 41884696 136316.97
322442.09 41886008 136316.95
314577.66 41885352 136316.95
306057.88 41886664 135661.59
298193.41 41886664 135006.23
290328.97 41887320 135006.22
281809.16 41887320 134350.86
273944.72 41887320 134350.84
266080.28 41887972 134350.84
258215.84 41888628 133695.48
250351.41 41888628 133695.48
242486.95 41889284 133040.12
235277.89 41889940 133040.11
227413.45 41889940 133040.11
219549 41891252 132384.73
212339.94 41889940 132384.73
203820.12 41891904 131729.38
196611.05 41891904 131729.38
188746.61 41891252 131729.38
180882.19 41892560 131074.02
173673.11 41891252 131074
165808.69 41893216 131074
157944.23 41892560 131074
150735.16 41893872 130418.64
142870.73 41893872 130418.63
135661.66 41893216 130418.63
127797.21 41894528 130418.63
120588.14 41894528 130418.63
112723.71 41895184 129763.26
105514.63 41895184 129763.26
97650.203 41895184 129763.26
91096.477 41896492 129763.26
83887.406 41896492 129763.26
76678.344 41896492 129107.9
68813.898 41896492 129107.89
61604.828 41896492 129107.89
54395.762 41896492 129107.89
47186.68 41897148 129107.89
39322.25 41897148 129107.89
32113.18 41897148 129107.89
24904.119 41898460 129107.89
17039.689 41899772 128452.52
9830.6201 41898460 129107.88
2621.54 41899772 128452.52
42945740 41899772 128452.52
42938532 41899116 128452.52
42930668 41901080 128452.52
42923460 41899772 128452.52
42916248 41901736 128452.52
42909040 41901080 128452.52
42901176 41900424 128452.52
42888068 41902392 128452.52
42872996 41901736 128452.52
42865784 41902392 128452.52
42858576 41904356 128452.52
42850712 41902392 129107.88
42843504 41904356 128452.52
42836296 41904356 129107.88
42829084 41904356 129107.89
42821876 41905668 129107.89
42814668 41905668 129107.89
42806804 41905668 129107.89
42799592 41905668 129107.89
42791728 41905668 129107.89
42784520 41907636 129107.89
42777312 41906980 129763.25
42769448 41906324 129763.26
42762236 41908292 129763.26
42755028 41907636 129763.26
42747164 41908944 129763.26
42739956 41908944 129763.26
42733400 41909600 130418.63
42725536 41908944 130418.63
42717672 41908292 130418.63
42710464 41910256 130418.63
42703252 41910256 131074
42695388 41910912 131074
42687524 41910912 131074
42680316 41910912 131729.36
42672452 41912876 131729.38
42664588 41912876 131729.38
42656724 41911568 132384.73
42649512 41913532 132384.73
42641648 41912876 132384.73
42633784 41914188 132384.73
42625920 41914844 133040.11
42618056 41914188 133040.11
42611504 41915500 133040.11
42602984 41914188 133695.48
42692112 42197304 97650.68
42688836 42205172 96339.398
42684248 42209104 96339.398
42678348 42209104 96339.391
42671796 42207140 96994.75
42555140 41917468 135661.02
42546620 41916808 135661.59
42538756 41918120 136316.95
42718984 42381468 74712.188
42704564 42358528 77988.992
42630508 42194688 100271.28
42626576 42199276 100271.61
42621332 42201896 100271.61
42614780 42201896 100271.6
42585940 42152736 107481.5
42583320 42161264 106169.95
42577424 42163228 106825.3
42573492 42166504 106169.95
42566936 42167816 106825.31
42559072 42165196 107480.67
42426688 41917464 141559.91
42412924 41908292 143526.03
42411616 41923364 142215.31
42405060 41929260 141559.91
42399164 41935160 141559.92
42395232 41944992 140904.53
42371636 41918776 144836.7
42372292 41936472 142870.66
42258916 41758212 169085.09
42237944 41760180 169740.31
42357216 41975136 139594.28
42215004 41759524 171706.55
42365740 42016424 135006.3
42194032 41760176 173017.67
42363768 42041324 132385.36
42300200 41958752 145492.56
42159956 41762800 174983.34
42403748 42141600 119277.34
42396540 42143568 119932.71
42390644 42146844 119932.71
42351976 42103592 127141.78
42353940 42119320 125175.67
42364428 42145532 121898.84
42357220 42147500 121898.82
42355252 42156020 121243.46
42365084 42180924 118622.02
42357220 42182236 118621.97
42362460 42199276 116655.88
42372292 42222868 114034.38
42355252 42211728 116000.46
42463388 42354596 94373.273
42461424 42360496 93717.906
42331004 42214352 117966.23
42357220 42263500 110757.54
42355908 42272676 110102.16
42340180 42263500 112723.65
42330348 42263500 113379.09
42328384 42269400 112723.64
42311344 42260880 115345.08
42302168 42260880 116000.42
42357216 42327724 104859.38
42352632 42331660 105514.56
42285128 42271364 116000.33
42352632 42348696 103548.62
42466664 42469940 83232.297
42452248 42462732 85198.102
42332316 42353944 104858.9
42445040 42469944 85198.102
42443728 42474528 85198.094
42399164 42440452 91751.703
42386712 42435864 93062.547
42382124 42439140 93717.906
42264812 42342148 112067.98
42291028 42373604 106825.31
42281852 42372948 108136.03
42264812 42365740 110102.17
42265468 42374912 109446.8
42268088 42385400 108136.06
42264812 42390644 108136.06
42258256 42393264 108791.41
41302072 41642864 258215.8
41304040 41663180 256249.69
41304040 41681532 254938.94
41305348 41700536 253628.2
41304696 41718232 252317.45
41306660 41772628 247729.88
41308628 41791632 246419.12
41307972 41808020 245108.39
41308628 41825712 243797.66
41310592 41841444 242486.91
41308628 41859136 241831.55
41312560 41878144 239865.44
41311248 41891252 239210.06
41311904 41907636 237899.31
41313216 41924676 236588.58
41313868 41941060 235933.2
41314524 41957444 234622.47
41313868 41972516 233967.09
41292244 41975136 235933.19
41266684 41975792 238554.66
41241780 41977104 241176.14
41218184 41980380 243142.27
41190004 41980380 246419.09
41164444 41982348 249040.58
41136264 41983656 252317.44
41107428 41984312 254938.91
41082524 41985624 257560.39
41052376 41986936 260837.23
41021576 41988244 264114.09
40990772 41992176 267390.94
40956692 41992832 271323.16
40939652 41999388 272633.91
40894432 41996108 277876.88
40859044 41997420 281809.09
40829552 42001352 285085.94
40768604 41992176 292294.91
40733868 41996108 296227.22
40694544 41997420 300159.44
40685368 42012492 300814.81
40621144 42004628 308023.81
40577888 42006596 313266.84
40550364 42015116 315888.34
40473688 42004628 325063.38
40425844 42006596 330306.44
40413392 42019048 331617.22
40330160 42009872 341447.62
40279696 42012492 347346.06
40269864 42030188 347346.09
40171560 42018392 359142.62
40134204 42027568 363730.34
40113888 42042640 365041.06
39997232 42028224 379459.19
39984124 42046572 380114.59
39851084 42043296 395843.47
39727220 42041984 410916.75
39706904 42060992 412227.72
39567964 42059024 429267.34
41469164 42582004 186784.16
39287464 42082620 462035.84
39145904 42089172 478420.09
41571428 42692768 171706.94
40206316 42488296 341445.25
40303944 42524336 328995.72
40271176 42576112 331617.19
40100780 42642304 351278.38
40084396 42660656 353244.44
40059492 42678348 355865.88
39248144 1840278.8 507256.38
39249452 1956279.1 513810.06
39832076 2026403.4 456137.47
39839288 2084076.1 459414.34
39841252 2146336.5 463346.59
39841252 2179105 465968.06
39845184 2208596.8 467278.81
39841908 2258404.5 471211
39850428 2367850.5 478420
41470504 1418220.6 251662.08
41503272 1406424 247729.86
41524244 1405113.2 245763.77
41539316 1410356.2 244453.02
41558976 1410356.2 243142.28
41579296 1409700.9 241176.17
41600264 1407734.8 239210.06
41619928 1406424 237243.95
41638276 1406424 235933.2
41659248 1403802.5 233967.09
41675632 1402491.8 232656.36
41694640 1401836.5 230690.25
41713644 1399215 228724.16
41730684 1399870.4 227413.41
41749692 1397904.2 226102.66
41766728 1397904.2 224791.92
41939092 1211123.6 193334.14
41908292 1266174 201198.45
41946300 1237338.5 195300.27
41931884 1273383.6 199887.81
41975792 1236027.8 192678.78
41987588 1238649.2 192023.42
41886664 1388728.9 214305.98
41901084 1390037.6 213650.3
41967272 1321227 201854.12
41980380 1323192 201198.59
41953512 1388072.9 209718.3
41971204 1383486.1 207752.3
41985624 1384796.8 207096.92
41998732 1385452.1 205786.19
42013804 1384796.8 205130.81
42028224 1384141.5 203820.08
42041984 1384141.4 203164.7
42059024 1379553.9 201198.61
42072788 1378898.5 200543.22
42084584 1382175.2 199887.86
42097692 1379553.9 198577.12
42111456 1378898.5 197921.75
42123908 1379553.9 197266.38
42138980 1379553.9 195955.64
42154052 1373000.2 194644.91
42178304 1352028.4 190712.69
42191408 1351373 190057.31
42190756 1375621.5 192678.77
42184200 1409700.6 196610.97
42194688 1413633.1 196611
42206484 1416254.5 195955.62
42219592 1415599.2 195300.27
42231388 1416254.5 194644.91
42244496 1414288.5 193989.52
42256948 1414288.5 193334.16
42270708 1411011.6 192023.42
42283816 1409045.5 191368.05
42295612 1409700.9 190712.67
42308064 1409045.5 190057.3
42319208 1407079.4 188746.56
42417512 1213748.2 162532.16
42342800 1406420.5 188090.7
42355252 1405768.6 187435.81
42466008 1165251.5 154667.81
42464696 1192121.2 157944.59
42390644 1403147.2 185469.7
42401784 1403802.5 184814.34
42420788 1383486.4 181537.53
42433896 1378243.1 180226.77
42444384 1378243.1 180226.75
42445692 1406423.6 182848.19
42436520 1463440.8 190057.25
42428652 1519147.2 196610.95
42420136 1580096.6 204475.38
42411616 1643667.5 212339.81
42401128 1717068.9 220859.62
42389332 1796368.5 230690.16
42378192 1879600.5 241176.08
42363116 1977250.5 252972.72
42351320 2071623.9 264769.41
42401128 1972008.2 251006.7
42416200 1971353 250351.34
42431276 1970042.2 249695.98
42869064 1363169.5 167119.34
42878892 1361203.5 167119.34
42879548 1663329 203820.06
102237.65 1056456.4 129763.26
116655.85 1051869.4 129763.32
163187.05 1386107.5 171051.56
173017.59 1384796.9 171051.56
183502.86 1386102.5 171706.31
192678.7 1382830.8 171051.56
151390.41 1034173.8 127797.15
218893.48 1208502.5 150735.12
228068.7 1210468.4 150735.09
237243.88 1209813 151390.45
245108.31 1207846.9 150735.09
254283.52 1208502.2 151390.47
263458.66 1209813 152045.83
271978.5 1209157.6 152045.84
280498.31 1205880.9 151390.48
289673.47 1206536.2 152045.84
298193.28 1205225.5 152045.84
307368.44 1207846.9 152701.2
291639.53 1051868.6 133695.45
297538.62 1044662.3 133040.44
300814.81 1032207.9 131729.39
307368.53 1028931 131729.38
320475.81 1031552.4 132384.73
328340.25 1030896.9 132384.72
579998.81 1037450.7 145491.95
817246.25 1185564.2 176294.52
827732.25 1182287.5 176949.91
766782.81 1034829.4 157944.17
775957.88 1032207.6 158599.5
1635148.2 1499486.9 271978.59
1617453.2 1462786.1 267391
1624006.6 1448367.6 266735.56
781205.12 42495500 142871.41
779890.31 42488948 143526.02
772681.25 42486328 142215.3
903097.81 42399820 167118.97
1013202.1 42323140 188091.2
837565.56 42423408 156633.94
833630.62 42417512 156633.42
829043.44 42412268 155978.12
826421.56 42405716 156633.42
823800.06 42399164 156633.42
830353.62 42386712 158599.5
827732.31 42380156 158599.55
928657.75 42300856 178915.7
924071.75 42294304 178916.02
923417.5 42285128 180226.97
922761 42275296 180882.11
1021720.2 42194032 201198.27
990920.25 42205828 195955.78
1435253.4 41847348 286395.31
1412972 41848656 283774.03
1393316.8 41848652 281153.75
1371034.2 41849964 277876.91
1351373.1 41849964 275910.78
1331056.6 41851272 273289.31
1312050.9 41851272 270667.84
1294355.9 41852584 268701.72
1276005.5 41853240 266080.22
928009.06 42140288 194645.95
1237989 41855208 261491.59
1219639.4 41856520 258870.23
1202604 41856516 256905.06
888031 42130456 191369.03
1167209.8 41857832 252971.89
1150829.9 41858480 251006.73
1133790.2 41859136 249040.61
1118061.4 41859136 247074.52
1101021.8 41860448 245108.41
1085948.2 41859792 243142.3
1070219.4 41860448 241831.55
1040072.3 41861760 237899.33
1025654.2 41863724 236588.58
1010580.7 41864380 234622.48
848706.5 42025600 198577.66
982399.75 41864380 231345.62
968634.94 41864384 230034.41
954218.81 41865692 228724.14
477771.88 42399156 115346.84
461387.69 42410296 112070.01
456792.91 42407684 112068.27
460069.72 42396540 113379
453516.06 42397196 112723.65
456792.88 42384744 114689.74
599008.25 42197308 152045.84
597042.06 42189444 152701.2
654058.81 42104248 169085.31
406333.12 42416852 105515.53
404363.31 42412268 106169.94
403707.97 42405716 106825.32
401086.44 42401128 107480.67
776607.81 41870288 210372.23
560999.94 42159948 153357.44
553785.25 42158644 152700.53
545923.25 42157332 152045.84
540680.25 42153400 152045.84
720251.69 41873556 205130.81
709110.44 41873556 203820.08
697969.12 41874212 202509.34
686827.88 41874868 201853.97
676341.94 41874868 200543.23
665856 41875520 199887.86
654714.75 41876176 198577.12
644884.19 41876176 197921.75
634398.25 41876176 197266.38
623912.31 41876832 196611
614081.75 41876176 195955.62
603595.88 41877488 194644.91
594420.69 41876832 193989.52
583279.38 41878144 192678.8
573448.81 41878144 192023.42
564925.12 41879460 191366.73
555094.94 41880116 190711.47
545923.25 41880108 190057.3
536092.75 41880764 189401.94
526262.19 41880764 188746.56
517742.34 41879452 188091.19
507256.44 41882076 186780.45
498081.28 41882076 186125.09
489561.47 41882076 185469.72
480386.28 41882076 185469.7
471211.09 41882076 184814.34
462035.94 41882732 184158.97
452860.75 41883384 183503.59
444996.28 41884696 182848.23
435821.12 41884696 182192.86
427956.66 41883384 181537.48
416815.41 41886008 180882.12
409606.31 41885352 180226.75
401741.88 41884696 180226.75
392566.69 41886008 179571.38
384046.88 41886664 178916.02
375527.06 41886664 178260.66
367007.25 41886664 177605.28
358487.47 41887320 177605.27
350623 41887320 176949.91
342103.22 41887320 176294.55
333583.38 41887972 176294.53
325718.97 41887972 175639.16
218238.25 42219592 120588.08
214306.02 42213692 121243.44
301468.84 41888632 174327.61
292950.47 41889940 173673.06
285086.03 41889284 173673.05
276566.22 41891252 173017.69
270012.5 41890596 173017.69
262148.06 41890596 172362.31
253628.25 41891904 171706.95
246419.16 41891904 171706.94
238554.73 41891252 171706.94
230034.94 41892560 171051.56
222825.84 41891904 171051.56
161221.89 42156672 127797.81
207096.19 41893220 170395.56
199232.55 41893216 169740.84
191368.11 41893872 169740.83
184159.03 41893872 169740.83
176294.59 41893872 169085.45
169085.52 41893872 169085.45
161221.08 41895836 168430.09
153356.66 41895836 168430.09
146147.56 41895184 168430.09
139593.86 41896492 167774.73
131729.42 41896492 167774.72
124520.35 41897148 167774.72
116655.91 41896492 167774.72
109446.84 41897804 167119.36
101582.4 41897804 167119.34
94373.328 41897148 167119.34
87164.258 41898460 166463.98
79299.82 41898460 166463.98
72090.75 41898460 166463.98
64881.68 41899116 166463.98
57017.238 41899116 166463.98
49808.172 41900424 166463.98
42599.109 41899772 166463.97
27525.609 41901080 165808.61
20316.539 41900424 165808.61
13107.46 41901736 165808.61
6553.75 41901080 165808.61
42949016 41901740 165808.03
42942464 41901736 165808.61
42935256 41901736 165808.61
42926736 41902392 165808.61
42919528 41903048 165808.61
42918872 42059024 140904.94
42905764 41903704 165808.61
42898556 41903704 165808.61
42907072 42188128 120588.77
42884136 41905012 165808.59
42876272 41904356 165808.61
42865132 41905012 165808.61
42858576 41905012 165808.61
42851368 41906980 165808.61
42844160 41906324 165808.61
42836948 41906980 165808.61
42829084 41906980 165808.61
42821876 41906980 165808.61
42814668 41908292 165808.62
42807456 41908292 166463.98
42868408 42384736 90442.219
42865128 42388668 89786.859
42784520 41907636 167119.34
42777968 41910256 166463.98
42770100 41909600 167119.34
42762892 41909608 167118.12
42755028 41910256 167119.34
42844156 42404396 87820.789
42732744 41910912 167774.72
42724880 41911568 167774.72
42717672 41912224 168430.08
42711120 41911568 168430.09
42702600 41912876 168430.09
42696044 41912876 169085.45
42688180 41912876 169085.45
42680972 41913532 169085.45
42673108 41912876 169740.83
42665244 41914188 169740.83
42657376 41914188 170396.19
42650168 41915500 170396.2
42642304 41916156 170396.2
42634440 41916156 171051.56
42626576 41916808 171051.56
42618712 41916808 171706.94
42610848 41916808 171706.94
42696700 42196648 125831.74
42694080 42205828 124520.3
42690800 42210416 123864.93
42684904 42213692 123864.93
42679004 42210416 124520.29
42671796 42206484 125175.66
42555796 41918776 174328.42
42547932 41919432 174983.78
42540068 41920744 174983.8
42708496 42356564 100926.98
42705220 42360496 100926.98
42699976 42358528 101582.34
42627888 42203208 128452.52
42688180 42353940 102893.09
42617400 42207796 128452.13
42675072 42347388 104859.19
42587252 42169784 135661.59
42553828 42113420 146147.52
42545308 42110800 147458.23
42536788 42107524 148113.61
42527616 42104244 149424.34
42650168 42359840 104203.9
42553176 42182236 136316.52
42548588 42186168 136316.95
42541376 42184856 136972.33
42534824 42184200 137627.69
42526960 42183544 138283.06
42520404 42184200 138938.44
42513196 42184200 138938.44
42507300 42186168 139593.81
42361152 41949580 183502.94
42410304 42047884 166464.23
42481080 42178956 142871.27
42391296 42045260 168430.3
42325760 41954824 185469.44
42323796 41967272 184159.05
42316588 41970552 184158.48
42315932 41984312 182848.25
42603636 42430616 98306.422
42591840 42421444 100926.94
42587908 42422100 100926.98
42419480 42188136 146802.19
42412268 42188788 147458.23
42287748 42026256 179571.39
42507296 42342140 118622.91
42273332 42034124 180226.55
42334280 42128496 162531.77
42314620 42114732 165808.56
42386708 42220244 145492.64
42277920 42091136 172362.45
42374912 42225488 146147.73
42490256 42379500 116000.86
42479772 42374260 117311.22
42476496 42378844 117311.24
42486980 42399816 113379.02
42483048 42402440 113379.01
42471908 42397196 115345.1
42467320 42399816 115345.12
42456836 42395884 117311.22
42452904 42399164 117311.23
42448316 42401784 117311.23
42444384 42405060 117311.23
42447660 42416200 116000.51
42445040 42421444 115345.12
42447004 42429308 114034.4
42442416 42433240 114689.75
42431276 42428000 116000.48
42437828 42441760 114034.41
42439140 42450280 112723.64
42435208 42452904 112723.64
42431276 42456180 113379
42428000 42460112 113379.01
42424720 42464044 112723.64
42427344 42473220 111412.93
42429964 42482396 110102.17
42431276 42490260 109446.8
42432588 42497468 108791.42
42431932 42503364 108136.05
42425376 42504020 108791.41
42419480 42505332 109446.78
42422756 42514508 108136.05
42430620 42526960 105514.59
42429964 42531548 105514.58
42424720 42533512 105514.58
42381468 42505332 114034.35
42408320 42532188 108139.43
42406372 42536788 108136.05
42372292 42517128 114034.39
42366392 42519096 114689.75
42361152 42521716 114689.75
41307988 41773952 319817.44
41307972 41790980 317854.47
41309936 41809984 315888.38
41311248 41827680 314577.62
41310592 41844064 312611.5
41311904 41861104 311300.75
41311904 41877488 309990.03
41313216 41895184 308023.91
41312560 41910256 306713.16
41311904 41926640 305402.44
41313216 41958752 302780.94
41315836 41973828 301470.19
41296176 41977760 303436.28
41273236 41979724 306713.12
41247676 41981036 309989.97
41219496 41981036 313922.19
41195248 41983004 317199.06
41169032 41984968 320475.91
41142820 41986936 323752.75
41113980 41988244 327684.97
41084492 41989556 332272.56
41055652 41991520 336204.78
41026816 41993488 340137
40996016 41994800 344069.22
40963904 41996764 348656.81
40947516 42005940 350622.94
40899676 41998076 357831.97
40862976 42001352 362419.56
40832828 42002664 367007.16
40810544 42013148 369628.66
40730592 41996764 382080.66
40695856 41998076 387323.62
40689300 42013804 387323.66
40613936 42002008 399120.16
40570680 42003976 405018.62
40552984 42015772 406984.78
40534636 42028224 408950.88
40437640 42011184 424679.69
40414048 42022324 427301.25
40393732 42035432 429922.69
40288872 42019048 446306.91
40273140 42034120 447617.72
40186636 42026256 461380.28
40133548 42030188 469244.88
40125028 42046572 469244.91
40009684 42032156 487595.22
39992644 42049196 489561.38
39878612 42038052 507256.12
39854360 42054436 509877.88
39700352 42072788 532815.5
41469192 42588564 241176.16
40347184 42399160 420750.22
40336056 42415548 422058.25
41575340 42684900 221518.45
41574052 42694732 221515.05
40314448 42487640 423365.97
40242980 42522368 433857.34
40305256 42589220 422713.78
40283628 42604948 425335.12
41577328 42898556 216927.48
39254696 1972663.4 663234.44
39858948 2631965.8 642917.94
39875332 3031735.8 683550.31
41901704 1248510.9 258222.69
41872900 1308773 268046.19
41935816 1249790.6 254938.94
41933848 1270762.1 257560.38
41851276 1393970 281153.34
41931228 1311395.1 262803.34
41882732 1393316.6 277876.88
41899116 1392661.2 275910.78
41967928 1319915.9 260182.05
41989556 1310085.5 256905.22
41994144 1323193 258215.98
41977760 1386762.9 268046.34
41990212 1389384.4 267390.97
42007252 1384796.9 264769.5
42021012 1386107.5 264114.12
42036744 1383486.1 262148.03
42047228 1385452.2 261492.64
42064268 1383486 260181.89
42077376 1384141.4 258871.16
42089828 1382830.8 257560.42
42118008 1358582 251662.09
42132428 1355960.5 250351.34
42131116 1380864.4 254283.53
42124564 1414288.2 258871.12
42134392 1419531.4 258871.16
42146188 1422152.9 258215.8
42159952 1420186.8 256905.05
42172404 1421497.5 256249.69
42188788 1415599.2 254283.56
42201240 1414943.9 252972.84
42212380 1418876 252972.83
42224832 1418876 252317.45
42237284 1418876 251006.72
42250392 1416910 249695.98
42263500 1416254.5 249040.61
42277264 1412977.8 247729.88
42289716 1411011.6 246419.12
42300200 1414943.9 246419.12
42311344 1412977.8 245108.39
42435204 1160008.8 200543.91
42446348 1157387.4 199888.53
42346732 1412977.8 243142.27
42370980 1383486.4 237244
42382776 1382830.8 236588.58
42393264 1383486.1 235933.2
42382780 1439188.4 244452.31
42374260 1491621.8 252972.77
42362460 1553226.4 262803.28
42350008 1620729.5 273289.19
42338212 1689543.2 284430.5
42323796 1768843 296882.5
42325760 1802922.8 302125.56
42339524 1802922.9 301470.19
42348700 1817340.8 302780.91
42350664 1855352.1 308679.22
42411616 1965454.8 322442.06
42425376 1968731.4 322442.03
42437828 1976595.8 323097.41
42869064 1361858.9 215616.73
42878892 1361203.5 215616.73
42880860 1665295.1 263458.75
42892656 1672504.1 264769.47
152045.77 1464096.6 232656.34
162531.69 1464752 233311.72
173017.61 1464752 233311.72
183503.52 1466718 233967.08
139594.55 1055807.4 168431.09
147459.05 1057773.4 169086.45
171706.56 1171144.1 187435.48
179571.31 1171146.2 187435.81
188091.12 1171146.2 187435.81
196610.92 1170490.8 187435.81
205130.73 1169835.5 188091.19
212995.19 1168524.8 188091.19
221514.98 1169180.1 188091.19
230034.8 1169180.1 188746.55
238554.59 1167869.4 188746.55
245763.69 1167869.4 188746.56
254283.5 1167214 188746.56
263458.66 1165903.2 189401.92
271323.12 1167869.4 189401.94
279187.59 1165247.9 189401.94
288362.75 1165247.9 190057.3
296882.56 1166558.6 190057.3
305402.34 1165903.2 190712.67
313922.16 1165247.9 190712.67
322441.97 1163281.8 190712.67
331617.12 1164592.5 191368.05
340136.97 1163937.1 192023.41
349312.12 1163937.1 192023.41
357831.94 1162626.4 192678.77
366351.75 1161315.6 192678.78
375526.94 1161971 193334.14
384046.75 1160660.2 193334.16
391911.19 1161971 193989.52
401086.38 1161971 194644.88
409606.19 1159349.5 194644.89
418781.38 1160004.9 195300.25
427301.19 1158694.1 195300.27
437131.72 1160004.9 195955.62
446306.91 1159349.5 196610.98
454826.72 1158038.8 196611
464001.91 1157383.4 197266.38
473832.44 1156728 197921.73
482352.25 1156072.8 197921.73
492182.78 1156072.8 198577.11
593763.75 1319912.8 228723.69
842148.12 1422806.6 261492.23
855912.12 1422806.6 262803.06
869020.5 1422152.9 263458.72
871642.12 1303532.8 248385.45
823800.88 1205226.8 230690.48
821834 1184253.8 228068.78
821178.62 1165903.4 225447.3
819867.88 1146897.6 222825.81
828387.56 1142309.9 223481.16
751709.44 42526304 167774.72
747777.25 42518440 167774.73
763505.81 42502712 171706.88
761539.94 42496812 171706.94
690104.62 42532204 156633.44
684861.56 42528924 155978.05
684861.62 42522372 156633.42
685520.69 42515160 157289.64
692070.62 42504020 159910.25
950282.5 42328384 220203.39
953563.25 42316584 222170.41
834285.19 42388020 195300.06
859189.88 42361808 201853.91
836907.81 42368360 197921.81
823802.19 42369012 195956.11
812658.88 42369672 193989.53
962736.19 42252360 230689.69
966670.69 42238596 233311.7
958806.25 42234664 232000.97
924071.81 42250392 224791.94
961427.56 42211072 235277.77
578036.12 42495500 142870.59
564928.94 42499432 140249.17
933247.19 42196652 232656.42
834281.94 42266780 209717.38
832975.25 42257604 210373.77
826421.75 42253668 209718.44
813314.19 42254980 207752.3
899167.75 42170436 230690.27
821179.56 42227456 212340.11
1223569.4 41859144 318508.12
1205225.6 41859792 315888.38
1188186 41860448 313266.88
682247.81 42315268 180884.12
1155410.1 41860456 308677.34
591807.56 42383424 159257.17
1121993.6 41861760 303436.34
1106261.1 41861764 301469.25
1091191.1 41861760 299504.09
1076117.6 41863724 296882.62
1061044.1 41863724 294916.5
767442.62 42152740 214962.56
755641.69 42154052 212995.27
745155.75 42154708 211684.52
737291.31 42151432 211029.14
730737.62 42147500 210373.78
723528.5 42144224 210373.77
717630.19 42138980 210373.77
725495.31 42119320 214306.19
595078.56 42258256 176950.66
753020.19 42062956 226102.64
460725.16 42399164 139593.81
397810.53 42467320 121243.72
394532.78 42464044 121243.46
459413.38 42376224 142870.34
669132.12 42102936 209718.19
661923.75 42099660 209063.03
659302.25 42093104 209718.39
646852.88 42094412 208408.5
640951.94 42091792 207752.3
793653.12 41872244 259526.53
779890.38 41874868 258215.8
768749.06 41874868 256905.05
757607.81 41874868 255594.31
392572.09 42384080 133697.33
615392.5 42049196 211684.52
717628.56 41876836 250350.75
707799.69 41875520 249695.98
509222.56 42165196 181537.5
502668.84 42163228 180882.12
349967.62 42393920 127141.79
357836.78 42372284 131731.09
351933.69 42372292 131073.98
353904.28 42360488 133041.8
348001.5 42360496 133040.11
346690.75 42353940 133695.48
336204.91 42362460 131074.03
332928 42358528 131729.38
332272.59 42350008 133040.09
342106.88 42321820 138939.94
572138.12 41880764 235277.84
562962.94 41880764 234622.45
553132.38 41880764 233967.09
307372.22 42344760 131730.92
534778.44 41882736 231999.45
524951.44 41883384 230690.25
515776.25 41883384 230034.88
506598.94 41883392 229378.55
360455.66 42176988 165154.2
488250.72 41884040 227413.41
331617.25 42212380 156633.44
469898.12 41885356 226101.59
461380.53 41884040 225447.28
451550.03 41886008 224136.55
302780.97 42222868 152701.2
301470.19 42211072 154667.3
298193.34 42204516 155978.03
416813.56 41886668 221514.09
408295.59 41886664 220859.7
400431.12 41887972 220204.33
391255.97 41887320 219548.95
382080.78 41887972 218893.59
374871.69 41888628 218238.22
366351.88 41889284 217582.84
357832.09 41889284 217582.84
349967.62 41889284 216927.47
245765.27 42186816 155323.62
333583.38 41889284 215616.73
235933.23 42180268 155978.06
316542.38 41891256 214305.06
308679.34 41890596 214305.98
300814.88 41890596 213650.62
292295.09 41891252 212995.27
284430.66 41892560 212339.89
276566.22 41891252 212339.88
268045.44 41892564 211683.77
260181.95 41892560 211684.52
252317.53 41892560 211029.16
187435.94 42140292 161221.06
201199.2 42052468 178261.12
176295.41 42139632 161221.77
165808.89 42162572 155978.3
159910.31 42163884 155978.06
158599.55 42138980 160565.62
148769.03 42159952 155978.06
152045.86 42113420 165153.22
143526.08 42127184 161876.41
139593.86 42115388 164497.89
131074.05 42131116 160565.66
125175.72 42130460 160565.66
153356.66 41897148 206441.56
145491.7 41897152 206440.86
138283.12 41897148 205786.19
130418.7 41898460 205786.19
123209.62 41898460 205786.17
115345.19 41898460 205130.81
108136.11 41898460 205130.81
100927.04 41898460 205130.81
93062.609 41899772 204475.44
87164.25 41899116 204475.44
79299.82 41900424 204475.44
72090.75 41900424 204475.44
64881.672 41899772 204475.44
57017.238 41901736 203820.06
49808.172 41901080 203820.06
42599.102 41901736 203820.06
35390.02 41901736 203820.06
27525.59 41902392 203164.7
20316.539 41903048 203164.7
13107.46 41903048 203164.7
5898.3901 41903048 203164.7
42949016 41903048 203164.7
