# .PCD v0.7 - Point Cloud Data file format
VERSION 0.7
FIELDS x y z
SIZE 4 4 4
TYPE F F F
COUNT 1 1 1
WIDTH 1978
HEIGHT 1
VIEWPOINT 0 0 0 1 0 0 0
POINTS 1978
DATA ascii
6.3699999 2.72 -1.33
6.4200001 2.71 -1.34
2.7 1.13 -0.56
6.4099998 2.6600001 -1.33
6.4299998 2.6400001 -1.34
6.54 2.6700001 -1.36
6.5799999 2.6500001 -1.37
6.54 2.6099999 -1.36
6.54 2.5799999 -1.35
6.54 2.5599999 -1.35
6.5500002 2.53 -1.35
6.5700002 2.52 -1.35
6.5900002 2.49 -1.36
6.6100001 2.48 -1.36
6.6599998 2.47 -1.37
6.73 2.47 -1.38
6.7800002 2.46 -1.39
6.8699999 2.47 -1.41
6.9299998 2.46 -1.42
7 2.46 -1.4299999
7.0799999 2.46 -1.4400001
7.1300001 2.45 -1.45
7.1399999 2.4300001 -1.45
7.1300001 2.3900001 -1.45
7.1100001 2.3599999 -1.4400001
7.0999999 2.3299999 -1.4400001
7.1100001 2.3099999 -1.4400001
7.1100001 2.28 -1.4400001
7.0999999 2.25 -1.4299999
7.0799999 2.21 -1.4299999
7.0900002 2.1900001 -1.4299999
7.0900002 2.1600001 -1.4299999
7.0799999 2.1300001 -1.42
7.0700002 2.0999999 -1.42
7.0700002 2.0799999 -1.42
7.0599999 2.04 -1.42
7.0799999 2.03 -1.42
7.0700002 2 -1.41
7.0500002 1.96 -1.41
7.04 1.9400001 -1.41
7.04 1.91 -1.4
7.04 1.89 -1.4
7.0500002 1.86 -1.4
7.04 1.8200001 -1.4
7.0300002 1.8 -1.4
7.0300002 1.78 -1.4
7.0300002 1.75 -1.4
7.02 1.72 -1.39
7.0300002 1.6900001 -1.39
7.02 1.67 -1.39
7.0100002 1.64 -1.39
7.02 1.62 -1.39
7.0300002 1.6 -1.39
7.02 1.5700001 -1.38
7.0100002 1.54 -1.38
7.02 1.51 -1.38
7.02 1.49 -1.38
7.02 1.46 -1.38
7 1.4400001 -1.38
7 1.41 -1.37
7.0100002 1.39 -1.38
7.02 1.36 -1.38
7.02 1.34 -1.37
7.0100002 1.3099999 -1.37
7 1.29 -1.37
7.0100002 1.26 -1.37
7.0100002 1.24 -1.37
7.02 1.22 -1.37
7 1.1799999 -1.37
7 1.16 -1.37
7.0100002 1.14 -1.37
7.0100002 1.11 -1.37
7.02 1.09 -1.37
7.0100002 1.0599999 -1.36
6.96 1.03 -1.35
7.0100002 1.01 -1.36
7.02 0.99000001 -1.36
7.0100002 0.95999998 -1.36
7.0100002 0.94 -1.36
6.9899998 0.91000003 -1.36
7.0100002 0.88 -1.36
7.0100002 0.86000001 -1.36
7.0100002 0.83999997 -1.36
7.0100002 0.81 -1.36
7.02 0.79000002 -1.36
7.0599999 0.76999998 -1.37
7.02 0.74000001 -1.36
7.0300002 0.72000003 -1.36
7.0100002 0.69 -1.36
7.0100002 0.66000003 -1.36
7 0.63999999 -1.35
7.02 0.62 -1.36
7.0300002 0.60000002 -1.36
7.0100002 0.56999999 -1.35
7.0100002 0.54000002 -1.35
7.02 0.51999998 -1.35
7.0300002 0.5 -1.36
7.0300002 0.47999999 -1.36
7.02 0.44999999 -1.35
7.02 0.43000001 -1.35
7.02 0.40000001 -1.35
7.0100002 0.38 -1.35
7.04 0.34999999 -1.36
7.0100002 0.33000001 -1.35
7 0.30000001 -1.35
7 0.28 -1.35
7.0100002 0.25 -1.35
7.0100002 0.23 -1.35
7.0100002 0.20999999 -1.35
7 0.18000001 -1.35
6.98 0.16 -1.34
6.9899998 0.13 -1.35
7.0100002 0.1 -1.35
7 0.079999998 -1.35
7.0100002 0.050000001 -1.35
7.0100002 0.029999999 -1.35
8.1099997 -0.029999999 -1.27
8.1000004 -0.059999999 -1.27
8.1199999 -0.079999998 -1.27
8.1000004 -0.11 -1.27
8.1300001 -0.14 -1.27
8.1199999 -0.17 -1.27
8.1199999 -0.2 -1.27
8.1099997 -0.23 -1.27
8.1199999 -0.25 -1.27
8.1199999 -0.28999999 -1.27
8.1099997 -0.31 -1.27
8.1199999 -0.34 -1.27
8.1199999 -0.37 -1.27
8.1099997 -0.40000001 -1.27
8.1300001 -0.41999999 -1.27
8.1400003 -0.44999999 -1.28
8.1400003 -0.47999999 -1.28
8.1300001 -0.50999999 -1.28
8.1400003 -0.54000002 -1.28
8.1400003 -0.56 -1.28
8.1199999 -0.60000002 -1.28
8.1400003 -0.62 -1.28
8.1099997 -0.64999998 -1.28
8.1700001 -0.68000001 -1.28
8.1800003 -0.70999998 -1.29
8.1800003 -0.74000001 -1.29
3.01 -0.27000001 -0.46000001
8.1300001 -0.79000002 -1.28
8.1300001 -0.81999999 -1.28
8.1400003 -0.85000002 -1.28
8.1199999 -0.87 -1.28
8.1300001 -0.91000003 -1.28
8.1099997 -0.93000001 -1.28
8.1099997 -0.95999998 -1.28
8.1300001 -0.99000001 -1.28
8.1199999 -1.02 -1.28
8.1199999 -1.05 -1.28
8.1099997 -1.08 -1.28
8.1099997 -1.1 -1.28
8.1099997 -1.13 -1.28
8.1300001 -1.16 -1.29
8.1199999 -1.1900001 -1.29
8.1099997 -1.22 -1.28
8.1300001 -1.25 -1.29
8.1000004 -1.28 -1.29
8.1199999 -1.3 -1.29
8.1000004 -1.33 -1.29
8.0900002 -1.36 -1.29
8.1000004 -1.39 -1.29
8.0799999 -1.42 -1.29
8.1000004 -1.45 -1.29
8.1000004 -1.48 -1.29
8.0699997 -1.5 -1.29
8.0799999 -1.53 -1.29
8.0799999 -1.5599999 -1.29
8.0699997 -1.59 -1.29
8.1000004 -1.63 -1.29
8.0600004 -1.64 -1.29
8.0600004 -1.67 -1.29
8.0699997 -1.71 -1.29
8.0799999 -1.73 -1.29
8.0799999 -1.77 -1.3
8.0699997 -1.79 -1.3
8.1000004 -1.83 -1.3
8.1000004 -1.86 -1.3
8.1099997 -1.89 -1.3
8.0900002 -1.91 -1.3
8.1000004 -1.95 -1.3099999
8.1199999 -1.98 -1.3099999
8.1099997 -2.02 -1.3099999
8.1400003 -2.05 -1.3200001
8.1199999 -2.0799999 -1.3099999
8.1099997 -2.0999999 -1.3099999
8.1300001 -2.1400001 -1.3200001
8.1199999 -2.1700001 -1.3200001
8.1199999 -2.1900001 -1.3200001
8.1199999 -2.23 -1.3200001
8.1000004 -2.26 -1.3200001
8.0900002 -2.28 -1.3200001
8.1000004 -2.3099999 -1.3200001
8.1000004 -2.3399999 -1.3200001
8.0900002 -2.3699999 -1.3200001
8.0799999 -2.4000001 -1.3200001
8.1199999 -2.4400001 -1.33
8.0699997 -2.46 -1.3200001
8.0699997 -2.48 -1.3200001
8.0600004 -2.52 -1.3200001
8.0600004 -2.54 -1.3200001
8.0600004 -2.5799999 -1.33
8.04 -2.5999999 -1.33
8.0600004 -2.6400001 -1.33
8.0600004 -2.6700001 -1.33
8.0799999 -2.7 -1.34
8.0799999 -2.74 -1.34
8.0799999 -2.76 -1.34
8.1199999 -2.8099999 -1.35
8.1199999 -2.8399999 -1.35
8.1199999 -2.8800001 -1.35
8.1099997 -2.9000001 -1.35
8.1099997 -2.9400001 -1.35
8.1199999 -2.97 -1.36
8.1199999 -3.01 -1.36
8.1199999 -3.03 -1.36
8.1400003 -3.0799999 -1.36
8.1499996 -3.1099999 -1.37
8.1499996 -3.1500001 -1.37
8.1599998 -3.1800001 -1.37
8.1599998 -3.22 -1.38
8.1700001 -3.25 -1.38
8.1800003 -3.28 -1.38
8.1999998 -3.3299999 -1.39
8.1800003 -3.3499999 -1.39
8.2200003 -3.4000001 -1.4
8.2299995 -3.4400001 -1.4
8.1599998 -3.45 -1.39
8.0299997 -3.4200001 -1.37
7.9200001 -3.4100001 -1.35
7.7600002 -3.3699999 -1.33
7.6199999 -3.3699999 -1.3099999
7.52 -3.3599999 -1.29
7.5 -3.3800001 -1.29
7.4699998 -3.4000001 -1.29
7.4499998 -3.4200001 -1.29
7.4200001 -3.4400001 -1.28
7.4200001 -3.47 -1.28
7.4099998 -3.49 -1.28
7.3899999 -3.52 -1.28
7.46 -3.5799999 -1.3
7.4899998 -3.6300001 -1.3
7.4699998 -3.6500001 -1.3
7.4899998 -3.7 -1.3099999
7.4499998 -3.7 -1.3
7.4200001 -3.73 -1.3
7.4299998 -3.76 -1.3099999
7.4499998 -3.8099999 -1.3099999
7.4299998 -3.8299999 -1.3099999
7.4000001 -3.8399999 -1.3099999
7.3699999 -3.8599999 -1.3
7.3000002 -3.8599999 -1.29
7.2800002 -3.8800001 -1.29
7.25 -3.8900001 -1.29
7.25 -3.9300001 -1.29
7.27 -3.97 -1.3
7.2399998 -3.99 -1.3
7.21 -4 -1.29
7.21 -4.04 -1.3
7.1500001 -4.0300002 -1.29
7.1399999 -4.0700002 -1.29
7.1199999 -4.0799999 -1.29
7.0900002 -4.0999999 -1.28
7.0900002 -4.1300001 -1.29
7.04 -4.1300001 -1.28
7.0100002 -4.1500001 -1.28
7.0100002 -4.1799998 -1.28
6.9699998 -4.1999998 -1.28
7.0100002 -4.2399998 -1.28
6.96 -4.2600002 -1.28
6.9099998 -4.25 -1.27
6.8499999 -4.25 -1.26
6.7800002 -4.2399998 -1.25
6.7600002 -4.2600002 -1.25
6.73 -4.27 -1.25
6.7199998 -4.3000002 -1.25
6.77 -4.3699999 -1.26
6.8499999 -4.46 -1.28
6.8299999 -4.4699998 -1.28
6.8099999 -4.5 -1.28
6.7800002 -4.5100002 -1.28
6.79 -4.5500002 -1.28
6.79 -4.5799999 -1.28
6.77 -4.5999999 -1.28
6.7800002 -4.6399999 -1.29
6.75 -4.6599998 -1.29
6.7600002 -4.6999998 -1.29
6.75 -4.7199998 -1.29
6.71 -4.7399998 -1.29
6.71 -4.77 -1.29
6.6999998 -4.8000002 -1.29
6.6799998 -4.8200002 -1.29
6.6700001 -4.8499999 -1.29
6.6399999 -4.8600001 -1.29
6.6199999 -4.8800001 -1.29
6.6100001 -4.9099998 -1.29
6.5799999 -4.9299998 -1.29
6.5700002 -4.96 -1.29
6.5500002 -4.98 -1.29
6.52 -4.9899998 -1.29
6.52 -5.0100002 -1.29
6.4899998 -5.04 -1.29
6.5100002 -5.0799999 -1.29
6.46 -5.0900002 -1.29
6.4699998 -5.1300001 -1.29
6.4699998 -5.1700001 -1.3
6.4099998 -5.1500001 -1.29
6.4099998 -5.1999998 -1.29
6.4000001 -5.2199998 -1.29
6.3800001 -5.25 -1.3
6.3699999 -5.27 -1.3
6.3600001 -5.3000002 -1.3
6.3600001 -5.3299999 -1.3
6.3000002 -5.3200002 -1.29
6.29 -5.3499999 -1.29
6.2800002 -5.3699999 -1.3
6.2600002 -5.4000001 -1.3
6.2399998 -5.4200001 -1.3
6.21 -5.4400001 -1.29
6.1900001 -5.4499998 -1.29
6.1799998 -5.4899998 -1.3
6.1599998 -5.5 -1.29
6.1900001 -5.5700002 -1.3099999
6.1700001 -5.5900002 -1.3099999
6.1300001 -5.5999999 -1.3
6.1300001 -5.6300001 -1.3099999
6.1100001 -5.6599998 -1.3099999
6.0700002 -5.6599998 -1.3
6.0500002 -5.6799998 -1.3
6.02 -5.6900001 -1.3
5.98 -5.6999998 -1.3
5.96 -5.7199998 -1.3
5.96 -5.7600002 -1.3
5.9200001 -5.7600002 -1.3
5.9000001 -5.7800002 -1.3
5.9200001 -5.8299999 -1.3
5.8899999 -5.8400002 -1.3
5.8699999 -5.8699999 -1.3
5.8499999 -5.8899999 -1.3
5.8299999 -5.9099998 -1.3
5.79 -5.9000001 -1.3
5.77 -5.9400001 -1.3
5.7600002 -5.96 -1.3
5.79 -6.0300002 -1.3099999
5.73 -6.0100002 -1.3
5.7199998 -6.0500002 -1.3099999
5.6999998 -6.0700002 -1.3099999
5.6799998 -6.0900002 -1.3099999
5.6500001 -6.0999999 -1.3
5.6199999 -6.1100001 -1.3
5.6100001 -6.1399999 -1.3
5.5900002 -6.1700001 -1.3099999
5.5900002 -6.21 -1.3099999
5.5599999 -6.1999998 -1.3099999
5.5300002 -6.2199998 -1.3099999
5.52 -6.2600002 -1.3099999
5.5100002 -6.29 -1.3099999
5.5 -6.3299999 -1.3200001
5.4699998 -6.3299999 -1.3099999
5.4299998 -6.3299999 -1.3099999
5.4000001 -6.3499999 -1.3099999
5.3899999 -6.3600001 -1.3099999
5.3699999 -6.3899999 -1.3099999
5.3400002 -6.3899999 -1.3099999
5.3200002 -6.4299998 -1.3099999
5.3200002 -6.46 -1.3099999
5.3000002 -6.5 -1.3200001
5.2600002 -6.4899998 -1.3099999
5.2399998 -6.52 -1.3099999
5.2199998 -6.5300002 -1.3099999
5.1999998 -6.5599999 -1.3099999
5.1900001 -6.5799999 -1.3099999
5.1599998 -6.5999999 -1.3200001
5.1300001 -6.6100001 -1.3099999
5.1300001 -6.6399999 -1.3200001
5.1100001 -6.6700001 -1.3200001
5.0900002 -6.6900001 -1.3200001
5.0700002 -6.73 -1.3200001
5.0700002 -6.7600002 -1.33
5.0300002 -6.7600002 -1.3200001
0.79000002 -1.0700001 -0.2
0.81999999 -1.11 -0.20999999
4.96 -6.8099999 -1.3200001
4.9499998 -6.8600001 -1.33
4.9099998 -6.8499999 -1.3200001
4.8899999 -6.8800001 -1.3200001
4.8800001 -6.9099998 -1.33
4.8600001 -6.9400001 -1.33
4.8499999 -6.96 -1.33
4.8000002 -6.96 -1.33
4.8099999 -7.0100002 -1.33
4.77 -7.0100002 -1.33
4.79 -7.0900002 -1.34
4.7399998 -7.0799999 -1.34
4.71 -7.0700002 -1.33
4.71 -7.1300001 -1.34
4.6799998 -7.1500001 -1.34
4.6700001 -7.1700001 -1.34
4.6500001 -7.21 -1.35
4.6300001 -7.21 -1.34
4.5900002 -7.23 -1.34
4.5799999 -7.25 -1.35
4.5599999 -7.2800002 -1.35
4.54 -7.3000002 -1.35
4.4899998 -7.29 -1.34
4.4899998 -7.3299999 -1.35
4.48 -7.3699999 -1.35
4.4400001 -7.3600001 -1.35
4.4000001 -7.3800001 -1.35
4.4000001 -7.4299998 -1.36
4.3800001 -7.46 -1.36
4.3600001 -7.4699998 -1.36
4.3400002 -7.5 -1.36
4.3099999 -7.5 -1.36
4.3000002 -7.54 -1.36
4.27 -7.5599999 -1.36
4.2600002 -7.5900002 -1.37
4.2399998 -7.6199999 -1.37
4.21 -7.6199999 -1.37
4.1700001 -7.6300001 -1.37
4.1599998 -7.6700001 -1.37
4.1399999 -7.71 -1.37
4.1300001 -7.75 -1.38
4.0900002 -7.73 -1.37
4.0700002 -7.7600002 -1.38
4.0300002 -7.7600002 -1.37
4.02 -7.79 -1.38
3.99 -7.8200002 -1.38
3.99 -7.8800001 -1.39
3.96 -7.8800001 -1.38
3.9200001 -7.8800001 -1.38
3.9000001 -7.9099998 -1.38
3.9200001 -8.0100002 -1.4
3.8699999 -7.9699998 -1.39
3.8399999 -7.98 -1.39
3.8199999 -8 -1.39
3.79 -8.0200005 -1.39
3.78 -8.0799999 -1.4
3.74 -8.0600004 -1.39
3.72 -8.0900002 -1.4
3.6900001 -8.1000004 -1.4
3.6800001 -8.1599998 -1.41
3.6500001 -8.1800003 -1.41
3.6199999 -8.1800003 -1.41
3.5999999 -8.21 -1.41
3.5899999 -8.2700005 -1.42
3.55 -8.25 -1.41
3.54 -8.3000002 -1.42
3.52 -8.3199997 -1.42
3.49 -8.3500004 -1.42
3.46 -8.3500004 -1.42
3.4200001 -8.3400002 -1.42
3.4000001 -8.3699999 -1.42
3.3800001 -8.4099998 -1.42
3.3499999 -8.4200001 -1.42
3.3199999 -8.4399996 -1.42
3.29 -8.4300003 -1.42
3.27 -8.4799995 -1.4299999
3.25 -8.5200005 -1.4299999
3.22 -8.5299997 -1.4299999
3.2 -8.5600004 -1.4400001
3.1600001 -8.5500002 -1.4299999
3.1400001 -8.5900002 -1.4400001
3.0999999 -8.5699997 -1.4299999
3.0799999 -8.5900002 -1.4299999
3.05 -8.6400003 -1.4400001
0.37 -1.0599999 -0.16
0.36000001 -1.05 -0.16
2.97 -8.6700001 -1.4400001
2.9400001 -8.6899996 -1.4400001
2.9100001 -8.6899996 -1.4400001
2.8800001 -8.71 -1.4400001
2.8499999 -8.7299995 -1.4400001
2.8199999 -8.7399998 -1.4400001
2.79 -8.75 -1.4400001
2.77 -8.7700005 -1.4400001
2.75 -8.8299999 -1.45
2.72 -8.8299999 -1.45
2.6800001 -8.8299999 -1.45
2.6500001 -8.8400002 -1.45
2.6199999 -8.8699999 -1.45
2.5999999 -8.8999996 -1.46
2.5699999 -8.9200001 -1.46
2.55 -8.9399996 -1.46
2.51 -8.96 -1.46
2.48 -8.9499998 -1.46
2.46 -9 -1.46
2.4300001 -9 -1.46
2.4000001 -9.0200005 -1.47
2.3699999 -9.0299997 -1.47
2.3299999 -9.0299997 -1.47
2.3099999 -9.0699997 -1.47
2.28 -9.0799999 -1.47
2.25 -9.1099997 -1.47
2.21 -9.0900002 -1.47
2.1900001 -9.1300001 -1.48
2.1600001 -9.1400003 -1.47
2.1400001 -9.1800003 -1.48
2.1099999 -9.1700001 -1.48
2.0699999 -9.1899996 -1.48
2.05 -9.2399998 -1.49
2.01 -9.2399998 -1.49
1.98 -9.2299995 -1.48
1.95 -9.2299995 -1.48
1.92 -9.2399998 -1.48
1.89 -9.29 -1.49
1.86 -9.3100004 -1.49
1.83 -9.3199997 -1.49
1.8 -9.3400002 -1.49
1.76 -9.3500004 -1.49
1.74 -9.3500004 -1.49
1.71 -9.3800001 -1.5
1.6799999 -9.3900003 -1.5
1.65 -9.4099998 -1.5
1.62 -9.4499998 -1.51
1.59 -9.4399996 -1.5
1.55 -9.4399996 -1.5
1.53 -9.4899998 -1.51
1.48 -9.46 -1.5
1.46 -9.4799995 -1.51
1.42 -9.5 -1.51
1.4 -9.5200005 -1.51
1.36 -9.54 -1.51
1.33 -9.5600004 -1.52
1.29 -9.5500002 -1.51
1.27 -9.5699997 -1.52
1.24 -9.5900002 -1.52
1.2 -9.6199999 -1.52
1.1799999 -9.6300001 -1.52
1.14 -9.6300001 -1.52
1.11 -9.6800003 -1.53
1.0700001 -9.6800003 -1.53
1.04 -9.6899996 -1.53
1.01 -9.71 -1.53
0.97000003 -9.6999998 -1.53
0.94 -9.7200003 -1.53
0.91000003 -9.7299995 -1.54
0.88 -9.7600002 -1.54
0.83999997 -9.75 -1.54
0.81 -9.7600002 -1.54
0.77999997 -9.7700005 -1.54
0.74000001 -9.8100004 -1.55
0.70999998 -9.8199997 -1.55
0.67000002 -9.8100004 -1.54
0.63999999 -9.8199997 -1.55
0.61000001 -9.8599997 -1.55
0.57999998 -9.8699999 -1.55
0.54000002 -9.8599997 -1.55
0.50999999 -9.9200001 -1.5599999
0.47 -9.8999996 -1.5599999
0.44 -9.8199997 -1.54
0.40000001 -9.9200001 -1.5599999
0.37 -9.9399996 -1.5599999
0.33000001 -9.9799995 -1.5700001
-1.1900001 -10.43 -1.65
-1.23 -10.46 -1.66
-1.27 -10.45 -1.66
-1.3 -10.43 -1.65
-1.34 -10.44 -1.65
-1.38 -10.46 -1.66
-1.42 -10.46 -1.66
-1.46 -10.48 -1.66
-1.5 -10.47 -1.66
-1.52 -10.44 -1.66
-1.5700001 -10.47 -1.67
-1.6 -10.47 -1.67
-1.65 -10.51 -1.67
-1.6799999 -10.5 -1.67
-1.73 -10.51 -1.67
-1.76 -10.53 -1.6799999
-1.8099999 -10.52 -1.6799999
-1.84 -10.52 -1.6799999
-1.88 -10.52 -1.6799999
-1.92 -10.54 -1.6799999
-1.96 -10.53 -1.6799999
-2 -10.56 -1.6900001
-2.04 -10.57 -1.6900001
-2.0799999 -10.56 -1.6900001
-2.1099999 -10.55 -1.6900001
-2.1500001 -10.56 -1.6900001
-2.1900001 -10.58 -1.7
-2.23 -10.55 -1.7
-2.26 -10.56 -1.7
-2.3 -10.54 -1.7
-2.3399999 -10.56 -1.7
-2.3900001 -10.57 -1.7
-2.4200001 -10.56 -1.7
-2.46 -10.56 -1.71
-2.5 -10.58 -1.71
-2.54 -10.57 -1.71
-2.5899999 -10.6 -1.72
-2.6300001 -10.58 -1.71
-2.6600001 -10.57 -1.71
-2.7 -10.58 -1.72
-2.74 -10.59 -1.72
-2.79 -10.6 -1.72
-2.8199999 -10.61 -1.73
-2.8599999 -10.57 -1.72
-2.9000001 -10.58 -1.73
-2.9400001 -10.59 -1.73
-2.97 -10.57 -1.73
-3.01 -10.53 -1.72
-3.05 -10.57 -1.73
-3.0999999 -10.57 -1.73
-3.1400001 -10.57 -1.73
-3.1700001 -10.57 -1.74
-3.23 -10.61 -1.74
-3.25 -10.57 -1.74
-3.29 -10.56 -1.74
-3.3299999 -10.58 -1.74
-3.3800001 -10.59 -1.75
-3.4200001 -10.59 -1.75
-3.46 -10.58 -1.75
-3.49 -10.57 -1.75
-3.54 -10.58 -1.75
-3.5799999 -10.57 -1.75
-3.6300001 -10.6 -1.76
-0.34999999 -0.95999998 -0.15000001
-0.34999999 -0.95999998 -0.15000001
-0.38 -0.94999999 -0.15000001
-0.34999999 -0.87 -0.14
-0.34999999 -0.86000001 -0.13
-0.36000001 -0.87 -0.14
-0.34999999 -0.85000002 -0.13
-0.36000001 -0.85000002 -0.13
-0.36000001 -0.85000002 -0.13
-0.36000001 -0.86000001 -0.14
-0.37 -0.86000001 -0.14
-0.37 -0.86000001 -0.14
-0.38 -0.86000001 -0.14
-0.37 -0.82999998 -0.13
-0.36000001 -0.81999999 -0.13
-0.38999999 -0.87 -0.14
-5.8499999 -10.33 -1.87
-5.8200002 -10.22 -1.85
-5.8699999 -10.21 -1.85
-5.9000001 -10.2 -1.85
-5.9400001 -10.16 -1.85
-5.98 -10.16 -1.86
-6.0100002 -10.13 -1.85
-6.04 -10.11 -1.85
-6.0799999 -10.07 -1.85
-6.1100001 -10.06 -1.85
-6.1599998 -10.06 -1.86
-6.21 -10.06 -1.86
-6.2399998 -10.02 -1.86
-6.27 -10 -1.86
-6.3099999 -10 -1.86
-6.3699999 -10.01 -1.87
-6.4099998 -10 -1.87
-6.4400001 -9.9700003 -1.87
-6.48 -9.96 -1.87
-6.5300002 -9.9499998 -1.87
-6.5599999 -9.9300003 -1.87
-6.6300001 -9.9499998 -1.88
-6.6500001 -9.9099998 -1.88
-6.6900001 -9.8900003 -1.88
-6.73 -9.8800001 -1.88
-6.79 -9.8800001 -1.89
-6.8099999 -9.8599997 -1.89
-6.8600001 -9.8599997 -1.89
-6.9000001 -9.8299999 -1.89
-6.9400001 -9.8299999 -1.89
-7.02 -9.8500004 -1.9
-7.0799999 -9.8800001 -1.91
-7.1100001 -9.8400002 -1.91
-7.1100001 -9.7799997 -1.9
-7.1399999 -9.7299995 -1.9
-7.1399999 -9.6700001 -1.89
-7.1399999 -9.5900002 -1.88
-7.1500001 -9.54 -1.88
-7.1599998 -9.4799995 -1.87
-7.1700001 -9.4300003 -1.87
-7.1700001 -9.3599997 -1.86
-7.1799998 -9.3100004 -1.85
-7.1999998 -9.2600002 -1.85
-7.1799998 -9.1800003 -1.83
-7.1900001 -9.1099997 -1.83
-7.21 -9.0799999 -1.8200001
-7.2199998 -9.0200005 -1.8200001
-7.21 -8.9499998 -1.8099999
-7.21 -8.8800001 -1.8
-7.21 -8.8299999 -1.79
-7.23 -8.7700005 -1.79
-7.21 -8.6999998 -1.78
-7.23 -8.6700001 -1.78
-7.21 -8.5799999 -1.76
-7.2199998 -8.54 -1.76
-7.2399998 -8.4899998 -1.76
-7.29 -8.5 -1.76
-7.3400002 -8.4899998 -1.77
-7.3899999 -8.4899998 -1.77
-7.46 -8.5 -1.78
-7.5100002 -8.5100002 -1.79
-7.5700002 -8.5 -1.79
-7.6100001 -8.5 -1.8
-7.6700001 -8.5 -1.8
-7.71 -8.4899998 -1.8099999
-7.77 -8.4899998 -1.8099999
-7.8299999 -8.5 -1.8200001
-7.8800001 -8.4899998 -1.8200001
-7.9299998 -8.4899998 -1.83
-7.96 -8.46 -1.83
-8.0500002 -8.5 -1.84
-8.1099997 -8.5 -1.85
-8.1599998 -8.5 -1.85
-8.21 -8.4799995 -1.86
-8.2799997 -8.5 -1.87
-8.3500004 -8.5100002 -1.88
-1.03 -1.01 -0.22
-0.97000003 -0.94 -0.2
-1.03 -0.97000003 -0.20999999
-0.97000003 -0.91000003 -0.2
-0.63 0.059999999 -0.090000004
-0.62 0.090000004 -0.090000004
-0.55000001 0.079999998 -0.079999998
-0.52999997 0.079999998 -0.07
-0.54000002 0.090000004 -0.07
-0.54000002 0.090000004 -0.07
-0.51999998 0.090000004 -0.07
-0.56 0.090000004 -0.079999998
-0.55000001 0.090000004 -0.079999998
-0.55000001 0.1 -0.079999998
-0.55000001 0.1 -0.079999998
-0.56999999 0.1 -0.079999998
-0.51999998 0.1 -0.07
-0.51999998 0.1 -0.07
-0.51999998 0.1 -0.07
-0.56999999 0.11 -0.079999998
-0.62 0.12 -0.090000004
-0.51999998 0.11 -0.07
-0.61000001 0.14 -0.090000004
-0.61000001 0.14 -0.090000004
-0.51999998 0.12 -0.07
-0.61000001 0.14 -0.090000004
-0.61000001 0.15000001 -0.090000004
-0.51999998 0.13 -0.07
-0.61000001 0.15000001 -0.090000004
-0.56 0.14 -0.079999998
-0.50999999 0.13 -0.07
-0.5 0.13 -0.07
-0.49000001 0.13 -0.07
-0.47999999 0.13 -0.07
-0.49000001 0.13 -0.07
-0.49000001 0.14 -0.07
-0.49000001 0.14 -0.07
-0.47999999 0.14 -0.07
-0.47 0.14 -0.07
-0.47999999 0.14 -0.07
-0.47999999 0.14 -0.07
-0.47 0.14 -0.07
-0.52999997 0.16 -0.07
-0.60000002 0.2 -0.090000004
-0.47999999 0.17 -0.07
-0.51999998 0.18000001 -0.07
-0.47999999 0.17 -0.07
-0.47 0.17 -0.07
-0.46000001 0.16 -0.059999999
-0.47 0.17 -0.07
-0.5 0.18000001 -0.07
-0.50999999 0.19 -0.07
-0.5 0.19 -0.07
-0.46000001 0.17 -0.07
-0.5 0.19 -0.07
-0.5 0.19 -0.07
-0.58999997 0.23 -0.090000004
-10.9 4.52 -1.86
-10.86 4.5599999 -1.85
-10.83 4.5900002 -1.85
-10.81 4.6300001 -1.85
-10.8 4.6599998 -1.85
-10.78 4.71 -1.85
-10.75 4.73 -1.85
-10.75 4.7800002 -1.85
-10.72 4.8099999 -1.85
-10.71 4.8400002 -1.85
-10.68 4.8800001 -1.85
-10.66 4.9200001 -1.85
-10.63 4.9499998 -1.85
-10.62 4.9899998 -1.85
-10.61 5.0300002 -1.85
-10.58 5.0500002 -1.85
-10.56 5.0900002 -1.84
-10.54 5.1300001 -1.84
-10.54 5.1799998 -1.85
-10.51 5.1999998 -1.84
-10.48 5.2399998 -1.84
-10.47 5.27 -1.84
-10.44 5.3099999 -1.84
-10.43 5.3400002 -1.84
-10.38 5.3699999 -1.84
-10.35 5.4499998 -1.84
-10.33 5.48 -1.84
-10.33 5.5300002 -1.84
-10.15 5.48 -1.8099999
-10.07 5.48 -1.8
-10.03 5.5 -1.8
-10 5.54 -1.8
-9.96 5.5500002 -1.79
-9.9700003 5.5999999 -1.8
-10.18 5.77 -1.84
-10.15 5.79 -1.84
-10.12 5.8299999 -1.84
-10.08 5.8499999 -1.83
-10.05 5.8800001 -1.83
-10.02 5.9099998 -1.83
-9.9700003 5.9299998 -1.8200001
-9.9099998 5.9400001 -1.8200001
-9.9200001 5.9899998 -1.8200001
-9.9099998 6.0300002 -1.8200001
-9.8900003 6.0700002 -1.83
-9.8999996 6.1199999 -1.83
-9.8699999 6.1599998 -1.83
-9.8500004 6.1799998 -1.83
-9.8100004 6.21 -1.83
-9.8100004 6.25 -1.83
-9.79 6.3000002 -1.83
-9.7600002 6.3200002 -1.83
-9.6999998 6.3200002 -1.8200001
-9.6000004 6.3099999 -1.8099999
-9.5200005 6.3099999 -1.8
-9.4799995 6.3299999 -1.79
-9.4099998 6.3400002 -1.78
-9.3599997 6.3499999 -1.78
-9.3199997 6.3600001 -1.77
-9.2600002 6.3699999 -1.77
-9.2399998 6.4000001 -1.77
-9.1899996 6.4200001 -1.76
-9.1499996 6.4299998 -1.76
-9.0600004 6.4200001 -1.75
-9.0500002 6.46 -1.75
-8.96 6.4499998 -1.74
-8.9099998 6.4499998 -1.73
-8.8299999 6.4499998 -1.72
-8.7700005 6.4499998 -1.71
-8.7299995 6.4699998 -1.71
-8.6300001 6.4400001 -1.6900001
-8.6300001 6.4899998 -1.7
-8.5299997 6.4499998 -1.6799999
-8.4700003 6.4699998 -1.6799999
-8.4399996 6.48 -1.67
-8.3800001 6.4699998 -1.66
-8.3199997 6.4899998 -1.66
-8.29 6.5 -1.66
-8.2200003 6.5 -1.65
-8.2200003 6.54 -1.65
-8.1899996 6.5700002 -1.65
-8.1499996 6.5799999 -1.65
-8.1300001 6.6199999 -1.65
-8.0900002 6.6199999 -1.64
-8.0600004 6.6500001 -1.64
-7.9899998 6.6399999 -1.63
-7.9400001 6.6500001 -1.63
-7.8899999 6.6399999 -1.62
-7.8400002 6.6500001 -1.62
-7.79 6.6500001 -1.61
-7.75 6.6700001 -1.61
-7.6999998 6.6799998 -1.6
-7.6399999 6.6599998 -1.59
-7.5799999 6.6599998 -1.59
-7.5500002 6.6799998 -1.58
-7.5 6.6799998 -1.58
-7.4499998 6.6799998 -1.5700001
-7.4099998 6.6999998 -1.5700001
-7.4000001 6.73 -1.5700001
-7.3499999 6.7399998 -1.5700001
-7.29 6.73 -1.5599999
-7.2399998 6.73 -1.55
-7.1599998 6.6999998 -1.54
-7.1199999 6.71 -1.54
-7.0799999 6.7199998 -1.53
-7.0100002 6.6999998 -1.52
-6.9899998 6.73 -1.52
-6.9400001 6.73 -1.52
-6.9200001 6.75 -1.52
-6.8800001 6.7600002 -1.51
-6.8299999 6.7600002 -1.51
-6.79 6.77 -1.51
-6.77 6.8000002 -1.51
-6.75 6.8299999 -1.51
-6.71 6.8299999 -1.5
-6.6799998 6.8600001 -1.5
-6.6399999 6.8499999 -1.5
-6.6199999 6.8699999 -1.5
-6.5900002 6.9000001 -1.5
-6.5500002 6.9000001 -1.49
-6.52 6.9200001 -1.49
-6.4899998 6.9299998 -1.49
-6.4400001 6.9299998 -1.49
-6.4099998 6.9400001 -1.48
-6.3699999 6.9499998 -1.48
-6.3499999 6.9699998 -1.48
-6.2800002 6.96 -1.47
-6.2600002 6.98 -1.47
-6.2399998 7.0100002 -1.47
-6.1199999 6.9099998 -1.45
-6.0999999 6.9499998 -1.45
-6.1300001 7.0300002 -1.46
-6.0999999 7.0500002 -1.46
-6.0900002 7.0799999 -1.47
-6 7.0300002 -1.45
-5.9699998 7.04 -1.45
-5.9499998 7.0700002 -1.45
-5.9099998 7.0700002 -1.45
-5.8499999 7.0599999 -1.4400001
-5.8200002 7.0599999 -1.4400001
-5.7600002 7.04 -1.4299999
-5.7199998 7.04 -1.42
-5.6799998 7.0500002 -1.42
-5.6300001 7.0300002 -1.41
-5.6199999 7.0500002 -1.42
-5.5799999 7.0700002 -1.41
-5.54 7.0599999 -1.41
-5.5 7.0599999 -1.4
-5.46 7.0599999 -1.4
-5.4000001 7.04 -1.39
-5.3499999 7.0100002 -1.38
-5.3000002 7 -1.38
-5.2600002 7 -1.37
-5.1799998 6.96 -1.36
-5.1399999 6.9499998 -1.36
-5.0999999 6.9499998 -1.35
-5.0599999 6.9299998 -1.35
-4.9899998 6.9000001 -1.34
-4.96 6.9000001 -1.33
-4.9200001 6.9099998 -1.33
-4.8899999 6.9000001 -1.33
-4.8699999 6.9299998 -1.33
-4.8299999 6.9200001 -1.3200001
-4.79 6.9200001 -1.3200001
-4.75 6.9099998 -1.3099999
-4.71 6.9200001 -1.3099999
-4.6700001 6.9000001 -1.3099999
-4.6300001 6.8800001 -1.3
-4.5900002 6.8899999 -1.3
-4.5599999 6.8800001 -1.29
-4.5100002 6.8699999 -1.29
-4.48 6.8699999 -1.29
-4.4499998 6.8699999 -1.28
-4.4200001 6.8800001 -1.28
-4.3800001 6.8800001 -1.28
-4.3299999 6.8499999 -1.27
-4.29 6.8499999 -1.27
-4.2600002 6.8400002 -1.26
-4.23 6.8499999 -1.26
-4.21 6.8600001 -1.26
-4.1799998 6.8800001 -1.26
-4.1599998 6.8800001 -1.26
-4.0999999 6.8499999 -1.25
-4.0700002 6.8600001 -1.25
-4.0599999 6.8899999 -1.25
-4.02 6.8699999 -1.25
-3.99 6.8800001 -1.25
-3.97 6.9000001 -1.25
-3.9400001 6.9099998 -1.25
-3.8800001 6.8800001 -1.24
-3.8499999 6.8699999 -1.23
-3.8299999 6.8800001 -1.23
-3.8 6.8699999 -1.23
-3.76 6.8600001 -1.23
-3.73 6.8600001 -1.22
-3.6700001 6.8200002 -1.21
-3.6500001 6.8299999 -1.21
-3.6300001 6.8600001 -1.22
-3.5999999 6.8499999 -1.21
-3.53 6.79 -1.2
-3.51 6.79 -1.2
-3.49 6.8299999 -1.2
-3.45 6.8000002 -1.1900001
-3.4400001 6.8299999 -1.2
-3.4100001 6.8400002 -1.2
-3.3699999 6.8299999 -1.1900001
-3.3399999 6.8099999 -1.1900001
-3.3199999 6.8499999 -1.1900001
-3.29 6.8200002 -1.1900001
-3.26 6.8400002 -1.1900001
-3.22 6.8099999 -1.1799999
-3.2 6.8400002 -1.1799999
-3.1800001 6.8400002 -1.1799999
-3.1500001 6.8499999 -1.1799999
-3.1199999 6.8499999 -1.1799999
-3.0799999 6.8299999 -1.17
-3.0599999 6.8299999 -1.17
-3.04 6.8400002 -1.17
-2.99 6.8099999 -1.17
-2.97 6.8200002 -1.17
-2.9400001 6.8400002 -1.17
-2.9300001 6.8499999 -1.17
-2.9000001 6.8499999 -1.16
-2.8800001 6.8600001 -1.17
-2.8499999 6.8699999 -1.16
-2.8199999 6.8600001 -1.16
-2.79 6.8600001 -1.16
-2.77 6.8699999 -1.16
-2.74 6.8800001 -1.16
-2.72 6.9000001 -1.16
-2.6900001 6.9000001 -1.16
-2.6700001 6.9099998 -1.16
-2.6500001 6.9200001 -1.16
-2.6199999 6.9200001 -1.16
-2.5799999 6.8899999 -1.15
-2.55 6.8899999 -1.15
-2.52 6.9000001 -1.15
-2.5 6.8899999 -1.15
-2.47 6.8899999 -1.15
-2.4400001 6.8800001 -1.14
-2.4100001 6.8499999 -1.14
-2.3800001 6.8600001 -1.14
-2.3499999 6.8499999 -1.13
-2.3199999 6.8499999 -1.13
-2.29 6.8400002 -1.13
-2.26 6.8200002 -1.13
-2.23 6.8200002 -1.12
-2.2 6.8099999 -1.12
-2.1900001 6.8299999 -1.12
-2.1500001 6.8200002 -1.12
-2.1300001 6.8200002 -1.12
-2.0999999 6.8099999 -1.12
-2.0799999 6.8299999 -1.12
-2.05 6.8200002 -1.11
-2.02 6.8000002 -1.11
-1.99 6.8000002 -1.11
-1.96 6.79 -1.11
-1.9299999 6.7800002 -1.1
-1.91 6.7800002 -1.1
-1.89 6.7800002 -1.1
-1.86 6.7800002 -1.1
-1.84 6.7800002 -1.1
-1.8099999 6.7800002 -1.1
-1.79 6.8000002 -1.1
-1.76 6.8000002 -1.1
-1.74 6.7800002 -1.1
-1.71 6.7800002 -1.09
-1.6900001 6.8000002 -1.1
-1.66 6.8000002 -1.1
-1.64 6.8099999 -1.1
-1.61 6.8099999 -1.1
-1.59 6.8200002 -1.1
-1.5700001 6.8299999 -1.1
-1.54 6.8200002 -1.09
-1.51 6.8200002 -1.09
-1.49 6.79 -1.09
-1.4400001 6.8200002 -1.09
-1.41 6.8099999 -1.09
-1.39 6.79 -1.08
-1.36 6.7800002 -1.08
-1.34 6.79 -1.08
-1.3099999 6.8099999 -1.09
-1.29 6.79 -1.08
-1.27 6.8099999 -1.08
-1.24 6.79 -1.08
-1.22 6.7800002 -1.08
-1.1900001 6.8200002 -1.08
-1.17 6.8099999 -1.08
-1.14 6.79 -1.08
-0.44 2.73 -0.41999999
-1.09 6.7800002 -1.0700001
-1.0700001 6.79 -1.0700001
-1.05 6.8099999 -1.08
-1.02 6.7800002 -1.0700001
-1 6.7600002 -1.0700001
-0.97000003 6.77 -1.0700001
-0.94999999 6.7600002 -1.0700001
-0.92000002 6.7600002 -1.0700001
-0.89999998 6.7600002 -1.0700001
-0.87 6.7600002 -1.0700001
-0.85000002 6.75 -1.0599999
-0.82999998 6.7800002 -1.0700001
-0.80000001 6.77 -1.0700001
-0.76999998 6.75 -1.0599999
-0.75 6.73 -1.0599999
-0.73000002 6.7399998 -1.0599999
-0.70999998 6.75 -1.0599999
-0.68000001 6.7600002 -1.0599999
-0.64999998 6.73 -1.0599999
-0.63 6.7199998 -1.05
-0.61000001 6.71 -1.05
-0.57999998 6.73 -1.0599999
-0.56 6.7199998 -1.05
-0.52999997 6.6900001 -1.05
-0.50999999 6.7199998 -1.05
-0.47999999 6.6999998 -1.05
-0.46000001 6.6999998 -1.05
-0.44 6.6900001 -1.05
-0.41999999 6.6799998 -1.05
-0.40000001 6.6700001 -1.04
-0.37 6.6999998 -1.05
-0.34 6.6599998 -1.04
-0.31999999 6.6700001 -1.04
-0.30000001 6.6799998 -1.04
-0.27000001 6.6500001 -1.04
-0.25 6.6500001 -1.04
-0.23 6.6700001 -1.04
-0.20999999 6.6599998 -1.04
-0.18000001 6.6599998 -1.04
-0.16 6.6599998 -1.04
-0.13 6.6399999 -1.04
-0.11 6.6300001 -1.04
-0.090000004 6.6599998 -1.04
-0.07 6.6500001 -1.04
-0.050000001 6.6599998 -1.04
-0.02 6.6300001 -1.04
0 6.6300001 -1.04
0.0099999998 6.6300001 -1.04
0.029999999 6.6199999 -1.03
0.050000001 6.6199999 -1.03
0.07 6.5799999 -1.03
0.1 6.5300002 -1.02
0.12 6.54 -1.02
0.14 6.5900002 -1.03
0.16 6.5700002 -1.03
0.19 6.54 -1.02
0.20999999 6.5300002 -1.02
0.23 6.5300002 -1.02
0.25 6.5500002 -1.02
0.28 6.5700002 -1.03
0.30000001 6.5700002 -1.03
0.31999999 6.5599999 -1.03
0.34999999 6.5599999 -1.03
0.37 6.54 -1.02
0.38999999 6.54 -1.02
0.41 6.5599999 -1.03
0.44 6.54 -1.02
0.46000001 6.5300002 -1.02
0.47999999 6.5300002 -1.02
0.5 6.54 -1.02
0.52999997 6.5300002 -1.02
0.55000001 6.5 -1.02
0.56999999 6.5100002 -1.02
0.58999997 6.4899998 -1.02
0.62 6.4699998 -1.02
0.63999999 6.48 -1.02
0.66000003 6.4699998 -1.02
0.68000001 6.46 -1.01
0.69999999 6.4299998 -1.01
0.72000003 6.4299998 -1.01
0.74000001 6.4400001 -1.01
0.76999998 6.4299998 -1.01
0.79000002 6.48 -1.02
0.81 6.4099998 -1.01
0.82999998 6.3899999 -1.01
0.86000001 6.3899999 -1.01
0.87 6.3800001 -1.01
0.91000003 6.4400001 -1.02
0.92000002 6.3899999 -1.01
0.94 6.3800001 -1.01
0.95999998 6.3699999 -1.01
0.99000001 6.3499999 -1
1 6.3499999 -1
1.03 6.3299999 -1
1.05 6.3200002 -1
1.0700001 6.3200002 -1
1.09 6.3200002 -1
1.12 6.3299999 -1
1.13 6.3000002 -1
1.16 6.29 -1
1.17 6.2800002 -1
1.2 6.2800002 -1
1.23 6.3000002 -1
1.24 6.27 -1
1.27 6.2800002 -1
1.28 6.27 -1
1.3099999 6.25 -1
1.33 6.2600002 -1
1.35 6.2399998 -1
1.37 6.2199998 -1
1.4 6.2399998 -1
1.41 6.1999998 -0.99000001
1.4400001 6.2399998 -1
1.45 6.1999998 -1
1.48 6.1900001 -0.99000001
1.5 6.21 -1
1.53 6.2199998 -1
1.55 6.21 -1
1.5700001 6.1799998 -1
1.58 6.1799998 -1
1.61 6.1900001 -1
1.63 6.1900001 -1
1.65 6.1799998 -1
1.6799999 6.21 -1
1.7 6.1799998 -1
1.72 6.1599998 -1
1.74 6.1700001 -1
1.77 6.1700001 -1
1.79 6.1700001 -1
1.8099999 6.1599998 -1
1.83 6.1500001 -1
1.87 6.21 -1.01
1.87 6.1300001 -1
1.89 6.1100001 -1
1.91 6.1199999 -1
1.95 6.1399999 -1.01
1.96 6.1199999 -1
1.98 6.0900002 -1
2 6.0999999 -1
2.02 6.0799999 -1
2.03 6.0599999 -1
2.0699999 6.0700002 -1
2.0799999 6.0500002 -1
2.0999999 6.0500002 -1
2.1199999 6.04 -1
2.1400001 6.0300002 -1
2.1700001 6.0500002 -1
2.1900001 6.0300002 -1
2.21 6.0100002 -1
2.23 6.0100002 -1
2.25 5.9899998 -1
2.27 6 -1
2.29 5.98 -1
2.3099999 5.96 -1
2.3299999 5.9499998 -1
2.3499999 5.9499998 -1
2.3800001 5.96 -1
2.3800001 5.9099998 -1
2.4100001 5.9200001 -1
2.4300001 5.9099998 -1
2.45 5.9099998 -1
2.48 5.9000001 -1
2.5 5.9200001 -1
2.53 5.9099998 -1
2.55 5.9200001 -1.01
2.55 5.8600001 -1
2.5899999 5.9000001 -1.01
2.6099999 5.8800001 -1
2.6199999 5.8499999 -1
2.6500001 5.8400002 -1
2.6600001 5.8400002 -1
2.6900001 5.8299999 -1
2.7 5.8099999 -1
2.73 5.8099999 -1
2.76 5.8299999 -1.01
2.77 5.8000002 -1
2.79 5.79 -1
2.8 5.7600002 -1
2.8299999 5.7600002 -1
2.8599999 5.79 -1.01
2.8800001 5.7600002 -1.01
2.8800001 5.73 -1
2.9100001 5.73 -1
2.9200001 5.6999998 -1
2.95 5.71 -1
2.96 5.6900001 -1
2.99 5.6900001 -1
3.02 5.6999998 -1.01
3.05 5.6900001 -1.01
3.0599999 5.6700001 -1.01
3.0799999 5.6599998 -1.01
3.0899999 5.6399999 -1
3.1300001 5.6799998 -1.01
3.1400001 5.6399999 -1.01
3.1500001 5.6199999 -1.01
3.1900001 5.6300001 -1.01
3.21 5.6300001 -1.01
3.22 5.5999999 -1.01
3.24 5.5999999 -1.01
3.26 5.5700002 -1.01
3.29 5.5799999 -1.01
3.3 5.5700002 -1.01
3.3399999 5.5799999 -1.02
3.3499999 5.5599999 -1.01
3.3800001 5.5599999 -1.02
3.4000001 5.5500002 -1.02
3.4200001 5.54 -1.02
3.4400001 5.54 -1.02
3.46 5.5100002 -1.02
3.46 5.48 -1.01
3.5 5.5 -1.02
3.5 5.4499998 -1.01
3.55 5.48 -1.02
3.5599999 5.46 -1.02
3.5799999 5.4499998 -1.02
3.5799999 5.4200001 -1.01
3.6300001 5.4400001 -1.02
3.6400001 5.4200001 -1.02
3.6600001 5.4099998 -1.02
3.6900001 5.4099998 -1.02
3.7 5.3800001 -1.02
3.73 5.3899999 -1.02
3.75 5.3800001 -1.02
3.77 5.3699999 -1.02
3.79 5.3499999 -1.02
3.8099999 5.3499999 -1.03
3.8199999 5.3200002 -1.02
3.8399999 5.3099999 -1.02
3.8599999 5.3000002 -1.02
3.8699999 5.27 -1.02
3.8900001 5.27 -1.02
3.9100001 5.2600002 -1.02
3.95 5.2600002 -1.03
3.96 5.25 -1.03
3.98 5.23 -1.03
3.99 5.21 -1.02
4.02 5.21 -1.03
4.0300002 5.1900001 -1.03
4.0599999 5.1799998 -1.03
4.0700002 5.1700001 -1.03
4.0900002 5.1500001 -1.03
4.1100001 5.1399999 -1.03
4.1399999 5.1300001 -1.03
4.1500001 5.1199999 -1.03
4.1500001 5.0799999 -1.02
4.1900001 5.0900002 -1.03
4.21 5.0700002 -1.03
4.2199998 5.0599999 -1.03
4.25 5.0500002 -1.03
4.2399998 5.0100002 -1.03
4.2800002 5.02 -1.03
4.3000002 5.0100002 -1.03
4.3099999 4.9899998 -1.03
4.3200002 4.96 -1.03
4.3499999 4.96 -1.03
4.3600001 4.9400001 -1.03
4.3800001 4.9200001 -1.03
4.4000001 4.9099998 -1.03
4.4099998 4.9000001 -1.03
4.4499998 4.9000001 -1.03
4.46 4.8699999 -1.03
4.48 4.8600001 -1.03
4.4899998 4.8400002 -1.03
4.5300002 4.8400002 -1.04
4.5300002 4.8099999 -1.03
4.5500002 4.8099999 -1.03
4.5700002 4.79 -1.03
4.5799999 4.77 -1.03
4.5900002 4.75 -1.03
4.6100001 4.7399998 -1.03
4.6300001 4.7199998 -1.03
4.6399999 4.71 -1.03
4.6799998 4.71 -1.04
4.6700001 4.6700001 -1.03
4.71 4.6700001 -1.04
4.7199998 4.6500001 -1.04
4.8000002 4.6700001 -1.05
4.7800002 4.6100001 -1.04
4.79 4.5900002 -1.04
4.8899999 4.4899998 -1.04
4.9099998 4.4899998 -1.04
4.9299998 4.4699998 -1.04
4.9299998 4.4400001 -1.04
4.96 4.4299998 -1.04
4.98 4.4200001 -1.04
5.0300002 4.4099998 -1.05
2.49 2.1600001 -0.50999999
5.0300002 4.3400002 -1.04
5.1199999 4.23 -1.04
5.1300001 4.2199998 -1.04
5.1599998 4.21 -1.04
5.3200002 4.1599998 -1.0599999
5.3400002 4.1399999 -1.0599999
5.4899998 4.0799999 -1.0700001
5.4400001 4.0100002 -1.0599999
5.4499998 3.99 -1.0599999
5.48 3.95 -1.0599999
5.5300002 3.97 -1.0599999
5.5100002 3.9100001 -1.0599999
5.5799999 3.9100001 -1.0700001
5.5700002 3.8800001 -1.0599999
5.5700002 3.8499999 -1.0599999
5.5700002 3.8199999 -1.0599999
5.73 3.8499999 -1.08
5.7199998 3.8 -1.0700001
5.7199998 3.78 -1.0700001
5.7600002 3.77 -1.08
5.8699999 3.73 -1.09
5.8899999 3.6900001 -1.09
5.9099998 3.6700001 -1.09
6.1500001 3.5599999 -1.11
6.1999998 3.5599999 -1.12
6.21 3.54 -1.12
6.3400002 3.5 -1.13
6.3699999 3.48 -1.13
6.3400002 3.4400001 -1.13
6.3299999 3.4000001 -1.12
6.1799998 3.3 -1.1
6.1599998 3.26 -1.09
6.1700001 3.23 -1.09
6.1599998 3.21 -1.09
6.1300001 3.1600001 -1.08
6.1100001 3.1300001 -1.0700001
6.1300001 3.0999999 -1.0700001
6.0900002 3.0599999 -1.0700001
6.1599998 3.0699999 -1.08
6.46 3.1600001 -1.12
6.6799998 3.24 -1.16
6.7199998 3.23 -1.17
6.6999998 3.2 -1.16
6.7199998 3.1700001 -1.16
6.79 3.1800001 -1.17
6.71 3 -1.15
7 3.02 -1.1900001
7.02 3 -1.1900001
7.0100002 2.96 -1.1900001
7.02 2.9400001 -1.1900001
7.0500002 2.9200001 -1.1900001
7.0500002 2.9000001 -1.1900001
7.1399999 2.9000001 -1.21
7.2600002 2.9200001 -1.23
7.4400001 2.8699999 -1.25
7.46 2.8499999 -1.25
7.4899998 2.8299999 -1.25
7.48 2.8 -1.25
7.4200001 2.75 -1.24
7.4000001 2.71 -1.23
7.4099998 2.6900001 -1.23
7.4400001 2.6700001 -1.24
7.52 2.6700001 -1.25
7.5700002 2.6600001 -1.26
7.5999999 2.6300001 -1.26
7.5999999 2.6099999 -1.26
7.5900002 2.5699999 -1.26
7.5900002 2.55 -1.25
7.6100001 2.52 -1.26
7.6300001 2.5 -1.26
7.6399999 2.47 -1.26
7.73 2.47 -1.27
7.8200002 2.47 -1.28
7.9499998 2.48 -1.3
8.21 2.53 -1.35
8.1999998 2.5 -1.34
8.2399998 2.48 -1.35
8.2399998 2.45 -1.35
8.21 2.4100001 -1.34
8.2200003 2.3800001 -1.34
8.1999998 2.3499999 -1.34
8.1899996 2.3099999 -1.33
8.1800003 2.28 -1.33
8.1899996 2.25 -1.33
8.1700001 2.21 -1.33
8.1599998 2.1800001 -1.3200001
8.1599998 2.1500001 -1.3200001
8.1599998 2.1199999 -1.3200001
8.1599998 2.0899999 -1.3200001
8.1499996 2.0599999 -1.3200001
8.1400003 2.02 -1.3099999
8.1199999 1.99 -1.3099999
8.1199999 1.96 -1.3099999
8.1300001 1.9400001 -1.3099999
8.0900002 1.89 -1.3
8.0900002 1.87 -1.3
8.1099997 1.84 -1.3
8.1099997 1.8099999 -1.3
8.1000004 1.77 -1.3
8.0900002 1.75 -1.3
8.0900002 1.71 -1.3
8.0799999 1.6900001 -1.29
8.0900002 1.65 -1.29
8.0900002 1.63 -1.29
8.0799999 1.59 -1.29
8.0699997 1.5700001 -1.29
8.0799999 1.53 -1.29
8.0799999 1.51 -1.29
8.0699997 1.48 -1.29
8.0900002 1.45 -1.29
8.0600004 1.42 -1.28
8.0799999 1.39 -1.28
8.0900002 1.37 -1.28
8.1000004 1.34 -1.29
8.0900002 1.3099999 -1.28
8.0799999 1.28 -1.28
8.0600004 1.25 -1.28
8.0900002 1.23 -1.28
8.0900002 1.1900001 -1.28
8.0799999 1.16 -1.28
8.0600004 1.13 -1.28
8.0799999 1.11 -1.28
8.0699997 1.08 -1.28
8.0600004 1.05 -1.27
8.0699997 1.02 -1.27
8.0900002 1 -1.28
8.0900002 0.95999998 -1.28
8.0799999 0.94 -1.27
8.0699997 0.91000003 -1.27
8.0600004 0.88 -1.27
8.0500002 0.85000002 -1.27
8.0600004 0.81999999 -1.27
8.0900002 0.79000002 -1.27
8.0900002 0.76999998 -1.27
8.0799999 0.73000002 -1.27
8.0799999 0.70999998 -1.27
8.0799999 0.68000001 -1.27
8.0799999 0.64999998 -1.27
8.1099997 0.63 -1.27
8.1300001 0.60000002 -1.28
8.1000004 0.56999999 -1.27
8.1099997 0.54000002 -1.27
8.1000004 0.51999998 -1.27
8.1199999 0.47999999 -1.27
8.1000004 0.46000001 -1.27
8.0799999 0.43000001 -1.27
8.1000004 0.40000001 -1.27
8.1099997 0.37 -1.27
8.1000004 0.34999999 -1.27
8.0900002 0.31999999 -1.27
8.0799999 0.28999999 -1.27
8.0799999 0.25999999 -1.27
8.0799999 0.23 -1.27
8.1000004 0.20999999 -1.27
8.1000004 0.17 -1.27
8.0799999 0.15000001 -1.27
8.0900002 0.12 -1.27
8.1000004 0.090000004 -1.27
8.1199999 0.059999999 -1.27
8.1099997 0.039999999 -1.27
9.6000004 -0.039999999 -1.16
9.5799999 -0.07 -1.16
9.6099997 -0.11 -1.17
9.6000004 -0.14 -1.16
9.5900002 -0.18000001 -1.16
9.6000004 -0.20999999 -1.17
9.6099997 -0.23999999 -1.17
9.6300001 -0.27000001 -1.17
9.6099997 -0.30000001 -1.17
9.6099997 -0.34 -1.17
9.6300001 -0.37 -1.17
9.6199999 -0.41 -1.17
9.6400003 -0.44 -1.17
9.6199999 -0.47999999 -1.17
9.6199999 -0.50999999 -1.17
9.6400003 -0.54000002 -1.17
9.6099997 -0.56999999 -1.17
9.6599998 -0.61000001 -1.17
9.6499996 -0.63999999 -1.17
9.6199999 -0.68000001 -1.17
9.6700001 -0.70999998 -1.1799999
9.6499996 -0.75 -1.17
9.6599998 -0.77999997 -1.1799999
9.6499996 -0.81 -1.17
9.6499996 -0.85000002 -1.1799999
9.6400003 -0.87 -1.17
9.6599998 -0.92000002 -1.1799999
9.6599998 -0.94 -1.1799999
9.6499996 -0.98000002 -1.1799999
9.6300001 -1.01 -1.1799999
9.6300001 -1.05 -1.1799999
9.6199999 -1.08 -1.17
9.6499996 -1.12 -1.1799999
9.6199999 -1.15 -1.1799999
9.6000004 -1.1799999 -1.17
9.6099997 -1.21 -1.1799999
9.6199999 -1.24 -1.1799999
9.6099997 -1.28 -1.1799999
9.6199999 -1.3099999 -1.1799999
9.6199999 -1.35 -1.1799999
9.6099997 -1.38 -1.1799999
9.5900002 -1.42 -1.1799999
9.6099997 -1.45 -1.1799999
9.6000004 -1.49 -1.1799999
9.6199999 -1.52 -1.1799999
9.6099997 -1.5599999 -1.1799999
9.6000004 -1.58 -1.1799999
9.6300001 -1.63 -1.1900001
9.6099997 -1.65 -1.1799999
9.6000004 -1.6900001 -1.1799999
9.6099997 -1.72 -1.1799999
9.6099997 -1.76 -1.1900001
9.6000004 -1.79 -1.1900001
9.6000004 -1.8200001 -1.1900001
9.5900002 -1.86 -1.1900001
9.6199999 -1.9 -1.1900001
9.6000004 -1.9299999 -1.1900001
9.6199999 -1.97 -1.1900001
9.6199999 -2.01 -1.1900001
9.6300001 -2.04 -1.1900001
9.6199999 -2.0799999 -1.1900001
9.6499996 -2.1099999 -1.2
9.6499996 -2.1500001 -1.2
9.6199999 -2.1800001 -1.2
9.6300001 -2.22 -1.2
9.6099997 -2.25 -1.2
9.6000004 -2.28 -1.2
9.6199999 -2.3199999 -1.2
9.6199999 -2.3599999 -1.2
9.5900002 -2.3800001 -1.2
9.6199999 -2.4200001 -1.2
9.6000004 -2.46 -1.2
9.6199999 -2.49 -1.21
9.6000004 -2.53 -1.21
9.6000004 -2.5599999 -1.21
9.6000004 -2.5999999 -1.21
9.5900002 -2.6300001 -1.21
9.6199999 -2.6800001 -1.21
9.5799999 -2.71 -1.21
9.5900002 -2.74 -1.21
9.6000004 -2.78 -1.21
9.6199999 -2.8299999 -1.22
9.6499996 -2.8699999 -1.22
9.6700001 -2.9100001 -1.23
9.6499996 -2.9400001 -1.22
9.6700001 -2.99 -1.23
9.6800003 -3.02 -1.23
9.6800003 -3.05 -1.23
9.6499996 -3.0899999 -1.23
9.6999998 -3.21 -1.24
9.7200003 -3.26 -1.24
9.6899996 -3.28 -1.24
9.6700001 -3.3199999 -1.24
9.6800003 -3.3599999 -1.24
9.6999998 -3.4100001 -1.25
9.6999998 -3.4400001 -1.25
9.6700001 -3.47 -1.25
9.7299995 -3.53 -1.26
3.6500001 -1.33 -0.46000001
3.52 -1.3 -0.44999999
9.7399998 -3.6400001 -1.26
9.71 -3.6800001 -1.26
9.7399998 -3.72 -1.27
9.7600002 -3.77 -1.27
9.71 -3.79 -1.27
9.6300001 -3.8299999 -1.26
9.46 -3.8099999 -1.24
9.4300003 -3.8699999 -1.24
9.4200001 -3.9000001 -1.24
9.4399996 -3.96 -1.24
9.4099998 -3.98 -1.24
9.3999996 -4.02 -1.24
9.4099998 -4.0599999 -1.24
9.4300003 -4.1100001 -1.25
9.4399996 -4.1399999 -1.25
9.4300003 -4.1799998 -1.25
9.4099998 -4.21 -1.25
9.4499998 -4.2600002 -1.26
9.4399996 -4.3099999 -1.26
9.4099998 -4.3299999 -1.26
2.71 -1.25 -0.34999999
9.4399996 -4.4200001 -1.27
9.46 -4.48 -1.27
9.4499998 -4.5100002 -1.27
9.4300003 -4.54 -1.27
9.4200001 -4.5700002 -1.27
9.4200001 -4.6199999 -1.27
9.4200001 -4.6500001 -1.28
9.4099998 -4.6900001 -1.28
9.3999996 -4.73 -1.28
9.3800001 -4.75 -1.28
9.3699999 -4.79 -1.28
9.3699999 -4.8299999 -1.28
9.3599997 -4.8699999 -1.28
9.3400002 -4.9000001 -1.28
9.3500004 -4.9499998 -1.29
9.3400002 -4.98 -1.29
9.3400002 -5.0300002 -1.29
9.3400002 -5.0599999 -1.29
9.3100004 -5.0999999 -1.29
9.3000002 -5.1300001 -1.29
9.25 -5.1500001 -1.29
9.1400003 -5.1199999 -1.27
8.9200001 -5.0500002 -1.25
8.75 -4.9899998 -1.22
8.6400003 -4.96 -1.21
8.6099997 -4.9899998 -1.21
8.6400003 -5.04 -1.21
8.6300001 -5.0799999 -1.22
8.6499996 -5.1199999 -1.22
8.5699997 -5.1300001 -1.21
8.3699999 -5.04 -1.1900001
8.3299999 -5.0599999 -1.1799999
8.25 -5.0500002 -1.17
8.1800003 -5.0500002 -1.17
8.1899996 -5.0900002 -1.17
8.0900002 -5.0700002 -1.16
8.0500002 -5.0799999 -1.15
8.0200005 -5.1100001 -1.15
8.0200005 -5.1399999 -1.16
7.9200001 -5.1199999 -1.14
7.9000001 -5.1399999 -1.14
7.8800001 -5.1599998 -1.14
7.8699999 -5.1999998 -1.14
7.8600001 -5.27 -1.15
7.71 -5.1999998 -1.13
7.6799998 -5.23 -1.13
7.52 -5.1999998 -1.11
7.6199999 -5.3200002 -1.13
7.6199999 -5.3499999 -1.13
7.6199999 -5.3800001 -1.13
7.6599998 -5.4499998 -1.14
7.5999999 -5.4499998 -1.13
7.5500002 -5.46 -1.13
7.2399998 -5.27 -1.09
7.2199998 -5.29 -1.09
7.21 -5.3299999 -1.09
7.1999998 -5.3499999 -1.09
7.1799998 -5.3800001 -1.09
7.1900001 -5.4200001 -1.09
7.1999998 -5.4699998 -1.1
7.21 -5.5100002 -1.1
7.21 -5.5599999 -1.1
7.21 -5.5999999 -1.11
7.2199998 -5.6500001 -1.11
7.2199998 -5.6900001 -1.12
7.2600002 -5.7600002 -1.12
7.2399998 -5.7800002 -1.12
7.2399998 -5.8400002 -1.13
7.25 -5.8699999 -1.13
7.25 -5.9200001 -1.14
7.27 -5.98 -1.14
7.25 -6 -1.14
7.25 -6.04 -1.15
7.25 -6.0799999 -1.15
7.23 -6.1100001 -1.15
7.23 -6.1500001 -1.15
7.2399998 -6.21 -1.16
7.23 -6.2399998 -1.16
7.23 -6.29 -1.16
7.21 -6.3200002 -1.16
7.2199998 -6.3699999 -1.17
7.1999998 -6.4000001 -1.17
7.1599998 -6.4099998 -1.17
7.1500001 -6.4400001 -1.17
7.1100001 -6.46 -1.17
7.0999999 -6.4899998 -1.17
7.0500002 -6.5 -1.16
7.0300002 -6.5100002 -1.16
7.0100002 -6.54 -1.16
6.9699998 -6.5500002 -1.16
6.9699998 -6.5900002 -1.16
6.9400001 -6.6100001 -1.16
6.9099998 -6.6199999 -1.16
6.8800001 -6.6500001 -1.16
6.8699999 -6.6799998 -1.16
6.8499999 -6.71 -1.16
6.8299999 -6.7399998 -1.16
6.8000002 -6.7600002 -1.16
6.79 -6.79 -1.17
6.7399998 -6.79 -1.16
6.7600002 -6.8499999 -1.17
6.73 -6.8800001 -1.17
6.73 -6.9200001 -1.17
6.6900001 -6.9200001 -1.17
6.6799998 -6.9699998 -1.17
6.6700001 -7.0100002 -1.17
6.6399999 -7.0300002 -1.17
6.6300001 -7.0599999 -1.1799999
6.6199999 -7.0999999 -1.1799999
6.5799999 -7.0999999 -1.1799999
6.5599999 -7.1399999 -1.1799999
6.5300002 -7.1500001 -1.1799999
6.52 -7.1900001 -1.1799999
6.4899998 -7.1999998 -1.1799999
6.4699998 -7.23 -1.1799999
6.4499998 -7.2600002 -1.1799999
6.4200001 -7.2800002 -1.1799999
6.3899999 -7.3099999 -1.1799999
6.3800001 -7.3400002 -1.1799999
6.3600001 -7.3800001 -1.1799999
6.3299999 -7.3899999 -1.1799999
6.3299999 -7.4299998 -1.1799999
6.3099999 -7.4499998 -1.1900001
6.2800002 -7.4899998 -1.1900001
6.2600002 -7.52 -1.1900001
6.2600002 -7.5599999 -1.1900001
6.23 -7.5900002 -1.1900001
6.1999998 -7.5999999 -1.1900001
6.1799998 -7.6399999 -1.1900001
6.1900001 -7.6900001 -1.2
6.1799998 -7.73 -1.2
6.1599998 -7.7600002 -1.2
6.1100001 -7.7600002 -1.2
6.0999999 -7.8099999 -1.2
6.0799999 -7.8299999 -1.2
6.04 -7.8899999 -1.21
6 -7.9000001 -1.21
5.9899998 -7.9400001 -1.21
5.9899998 -8.0100002 -1.21
5.98 -8.04 -1.22
2.0899999 -2.8299999 -0.41999999
5.9099998 -8.0699997 -1.22
5.8899999 -8.1000004 -1.22
5.8899999 -8.1599998 -1.22
5.8600001 -8.1899996 -1.22
5.8400002 -8.21 -1.22
5.8099999 -8.2200003 -1.22
5.79 -8.2600002 -1.22
5.77 -8.29 -1.23
5.7600002 -8.3400002 -1.23
5.73 -8.3500004 -1.23
5.71 -8.3900003 -1.23
5.6900001 -8.4200001 -1.24
5.6599998 -8.46 -1.24
5.6599998 -8.5100002 -1.24
5.6199999 -8.5299997 -1.24
5.6199999 -8.5699997 -1.25
5.5999999 -8.6099997 -1.25
5.5599999 -8.6199999 -1.25
5.5500002 -8.6700001 -1.25
5.5100002 -8.6700001 -1.25
5.4899998 -8.6999998 -1.25
5.46 -8.7299995 -1.25
5.4400001 -8.7799997 -1.26
5.4400001 -8.8400002 -1.26
5.4200001 -8.8599997 -1.26
5.3800001 -8.8800001 -1.26
5.3699999 -8.9399996 -1.27
5.3499999 -8.96 -1.27
5.3299999 -8.9899998 -1.27
5.3000002 -9.0299997 -1.27
5.27 -9.0299997 -1.27
5.25 -9.0799999 -1.27
5.23 -9.1099997 -1.28
5.1999998 -9.1400003 -1.28
5.1900001 -9.1899996 -1.28
5.1599998 -9.21 -1.28
5.1399999 -9.25 -1.29
5.0999999 -9.2700005 -1.29
5.0900002 -9.3199997 -1.29
5.0700002 -9.3599997 -1.29
5.04 -9.3900003 -1.3
5.0100002 -9.4200001 -1.3
4.9899998 -9.4399996 -1.3
4.98 -9.4899998 -1.3
4.9200001 -9.4700003 -1.3
4.9099998 -9.5299997 -1.3
4.8899999 -9.5799999 -1.3099999
4.8600001 -9.6000004 -1.3099999
4.8600001 -9.6999998 -1.3200001
0.92000002 -1.85 -0.23999999
4.7800002 -9.6999998 -1.3200001
4.79 -9.79 -1.33
4.7600002 -9.8199997 -1.33
4.7399998 -9.8599997 -1.33
4.6900001 -9.8599997 -1.33
4.6599998 -9.8800001 -1.33
4.6399999 -9.9300003 -1.33
4.6300001 -9.9899998 -1.34
4.6100001 -10.03 -1.34
4.5700002 -10.04 -1.34
4.5500002 -10.09 -1.35
4.5100002 -10.1 -1.35
4.48 -10.13 -1.35
4.4699998 -10.2 -1.35
4.4299998 -10.19 -1.35
4.4099998 -10.25 -1.36
4.3699999 -10.25 -1.35
4.3499999 -10.32 -1.36
0.57999998 -1.38 -0.17
0.56999999 -1.37 -0.17
4.2600002 -10.39 -1.37
4.23 -10.45 -1.37
4.1900001 -10.44 -1.37
4.1700001 -10.48 -1.37
4.1300001 -10.5 -1.37
4.0999999 -10.54 -1.38
4.0900002 -10.6 -1.38
4.02 -10.55 -1.37
4.04 -10.7 -1.39
4.02 -10.79 -1.4
4 -10.82 -1.4
0.62 -1.7 -0.20999999
3.9200001 -10.84 -1.4
3.9000001 -10.88 -1.41
3.8399999 -10.88 -1.4
3.8299999 -10.94 -1.41
3.79 -10.97 -1.41
3.76 -10.99 -1.41
3.72 -11 -1.41
3.6800001 -11.01 -1.41
3.6400001 -11.03 -1.41
3.6099999 -11.06 -1.42
3.5799999 -11.1 -1.42
3.5599999 -11.18 -1.4299999
3.51 -11.14 -1.42
3.51 -11.28 -1.4400001
3.4400001 -11.19 -1.42
3.4300001 -11.3 -1.4400001
3.3599999 -11.22 -1.42
3.3199999 -11.33 -1.4400001
3.27 -11.35 -1.4400001
3.23 -11.36 -1.4400001
3.1900001 -11.37 -1.4400001
3.1500001 -11.38 -1.4400001
3.1099999 -11.39 -1.4400001
3.0899999 -11.44 -1.4400001
3.04 -11.45 -1.4400001
3.02 -11.5 -1.45
2.98 -11.53 -1.45
2.9400001 -11.52 -1.45
2.9000001 -11.55 -1.45
2.8599999 -11.56 -1.45
2.8199999 -11.6 -1.45
2.8 -11.68 -1.46
2.76 -11.69 -1.46
2.74 -11.77 -1.47
2.6900001 -11.73 -1.47
2.6500001 -11.76 -1.47
2.6199999 -11.78 -1.47
2.5799999 -11.81 -1.47
2.5599999 -11.93 -1.49
2.5 -11.87 -1.48
2.48 -11.95 -1.49
2.4300001 -11.96 -1.49
2.4000001 -11.97 -1.49
2.3499999 -11.98 -1.49
2.3099999 -11.99 -1.49
2.27 -12.03 -1.49
2.23 -12 -1.49
2.1900001 -12.04 -1.49
2.1500001 -12.05 -1.49
2.1099999 -12.1 -1.49
2.0699999 -12.11 -1.5
1.99 -12.14 -1.5
1.9400001 -12.15 -1.5
1.91 -12.21 -1.5
1.87 -12.22 -1.5
1.84 -12.27 -1.51
1.79 -12.32 -1.51
1.75 -12.28 -1.51
1.72 -12.33 -1.51
1.6799999 -12.39 -1.52
1.64 -12.36 -1.52
1.59 -12.4 -1.52
1.36 -10.83 -1.33
1.51 -12.47 -1.53
1.47 -12.47 -1.53
1.4299999 -12.52 -1.53
1.39 -12.52 -1.53
1.34 -12.54 -1.54
1.3 -12.54 -1.53
1.26 -12.6 -1.54
0.13 -1.35 -0.15000001
1.1799999 -12.66 -1.55
1.13 -12.64 -1.55
1.09 -12.69 -1.55
1.05 -12.71 -1.55
1 -12.68 -1.55
0.95999998 -12.73 -1.55
0.91000003 -12.75 -1.5599999
0.88 -12.76 -1.5599999
0.83999997 -12.79 -1.5599999
0.79000002 -12.82 -1.5599999
0.75 -12.84 -1.5700001
0.69999999 -12.84 -1.5700001
0.66000003 -12.88 -1.5700001
0.61000001 -12.93 -1.58
0.57999998 -12.94 -1.58
0.51999998 -12.96 -1.58
0.49000001 -13 -1.58
0.44 -13.08 -1.59
0.039999999 -1.6 -0.18000001
0.34999999 -13.12 -1.6
0.31 -13.2 -1.61
-1.35 -13.8 -1.6900001
-1.38 -13.75 -1.6799999
-1.4400001 -13.72 -1.6799999
-1.48 -13.71 -1.6799999
-1.53 -13.67 -1.6799999
-1.5700001 -13.66 -1.6799999
-1.62 -13.66 -1.6799999
-1.66 -13.65 -1.6799999
-1.72 -13.66 -1.6799999
-1.76 -13.65 -1.6799999
-1.8200001 -13.65 -1.6799999
-1.86 -13.63 -1.6799999
-1.91 -13.64 -1.6799999
-1.96 -13.68 -1.6799999
-2.01 -13.66 -1.6799999
-2.05 -13.64 -1.6799999
-2.1099999 -13.68 -1.6900001
-2.1600001 -13.68 -1.6900001
-2.2 -13.69 -1.6900001
-2.25 -13.67 -1.6900001
-2.29 -13.65 -1.6900001
-2.3499999 -13.67 -1.6900001
-2.3900001 -13.67 -1.6900001
-2.45 -13.67 -1.6900001
-2.49 -13.67 -1.6900001
-2.55 -13.68 -1.7
-2.5899999 -13.69 -1.7
-2.6500001 -13.69 -1.7
-2.6900001 -13.68 -1.7
-2.75 -13.66 -1.7
-2.79 -13.67 -1.7
-2.8499999 -13.68 -1.7
-2.9000001 -13.7 -1.71
-2.96 -13.71 -1.71
-3 -13.7 -1.71
-3.05 -13.7 -1.71
