# .PCD v0.7 - Point Cloud Data file format
VERSION 0.7
FIELDS x y z
SIZE 4 4 4
TYPE F F F
COUNT 1 1 1
WIDTH 1999
HEIGHT 1
VIEWPOINT 0 0 0 1 0 0 0
POINTS 1999
DATA ascii
-14.28 20.959999 2.21
-14.16 20.969999 2.21
-14.06 20.959999 2.2
-13.94 20.950001 2.2
-13.84 20.940001 2.1900001
-13.75 20.940001 2.1900001
-13.62 20.93 2.1800001
-13.53 20.92 2.1800001
-13.42 20.940001 2.1700001
-13.3 20.940001 2.1700001
-13.2 20.91 2.1600001
-13.1 20.9 2.1500001
-12.99 20.9 2.1500001
-12.9 20.9 2.1400001
-12.79 20.9 2.1400001
-12.69 20.889999 2.1300001
-12.57 20.879999 2.1300001
-12.48 20.879999 2.1199999
-12.38 20.889999 2.1199999
-12.29 20.879999 2.1199999
-12.17 20.879999 2.1099999
-12.08 20.860001 2.1099999
-11.99 20.85 2.0999999
-11.89 20.860001 2.0999999
-11.8 20.85 2.0899999
-11.69 20.85 2.0899999
-11.59 20.82 2.0799999
-11.49 20.84 2.0799999
-11.4 20.82 2.0699999
-11.3 20.84 2.0699999
-11.19 20.780001 2.0599999
-10.95 20.530001 2.03
-10.88 20.540001 2.03
-10.84 20.68 2.04
-10.85 20.85 2.05
-10.83 21.02 2.0599999
-10.82 21.16 2.0799999
-10.81 21.34 2.0899999
-10.76 21.4 2.0899999
-10.66 21.41 2.0899999
-10.57 21.4 2.0799999
-10.46 21.389999 2.0799999
-10.38 21.389999 2.0799999
-10.28 21.41 2.0699999
-10.2 21.389999 2.0699999
-10.09 21.379999 2.0599999
-10 21.360001 2.0599999
-9.9200001 21.360001 2.0599999
-9.8199997 21.360001 2.05
-9.75 21.370001 2.05
-9.6400003 21.360001 2.05
-9.5500002 21.34 2.04
-9.4499998 21.34 2.04
-9.3699999 21.34 2.04
-9.2799997 21.360001 2.03
-7.8200002 18.15 1.73
-9.0900002 21.32 2.02
-9.0200005 21.33 2.02
-7.6700001 18.360001 1.74
-8.8400002 21.34 2.02
-8.7399998 21.33 2.01
-8.6499996 21.299999 2.01
-8.5600004 21.309999 2
-8.4799995 21.309999 2
-8.4099998 21.309999 2
-7.1999998 18.469999 1.73
-8.2200003 21.27 1.99
-8.1300001 21.280001 1.99
-8.0500002 21.280001 1.99
-6.6999998 17.92 1.67
-6.6199999 17.879999 1.66
-7.7800002 21.27 1.98
-7.71 21.27 1.98
-7.6100001 21.26 1.97
-7.5500002 21.280001 1.97
-7.4400001 21.26 1.97
-7.3699999 21.25 1.96
-7.29 21.280001 1.96
-7.3699999 21.73 2
-7.3499999 21.959999 2.02
-7.1199999 21.51 1.98
-7.1199999 21.719999 2
-7.0999999 21.950001 2.01
-7.1100001 22.200001 2.04
-7.0900002 22.450001 2.0599999
-7.0799999 22.66 2.0699999
-7.0500002 22.9 2.0899999
-7.0500002 23.120001 2.1099999
-7.0599999 23.48 2.1400001
-7.1100001 23.92 2.1800001
-7.1399999 24.389999 2.22
-7.21 24.879999 2.26
-7.2600002 25.43 2.3099999
-7.3000002 25.889999 2.3499999
-7.3800001 26.58 2.4100001
-7.4299998 27.07 2.45
-7.5300002 27.879999 2.52
-7.5799999 28.379999 2.5699999
-7.6399999 29.09 2.6300001
-7.7399998 29.82 2.6900001
-7.73 30.27 2.73
-7.73 30.67 2.76
-1.36 20.67 1.8099999
-1.3 20.700001 1.8099999
-1.21 20.67 1.8099999
-1.15 20.68 1.8099999
-1.0700001 20.67 1.8099999
-1.01 20.629999 1.8
-1.13 25.290001 2.21
-1.0599999 25.280001 2.21
-0.98000002 25.299999 2.21
-0.88 25.32 2.21
-0.80000001 25.24 2.21
-0.83999997 29.969999 2.6199999
-0.75 30 2.6199999
-0.63 30.01 2.6199999
2.3299999 29.6 2.5899999
1.6799999 16.24 1.42
1.84 16.17 1.42
1.9400001 16.07 1.41
1.99 16.08 1.41
2.1199999 16.17 1.42
2.1400001 15.8 1.39
2.6700001 16.01 1.42
3.3 18.5 1.64
3.3499999 18.49 1.64
3.4200001 18.43 1.64
3.48 18.48 1.64
3.5599999 18.48 1.64
3.6099999 18.43 1.64
3.6800001 18.48 1.64
3.75 18.450001 1.64
3.8099999 18.48 1.65
3.8800001 18.42 1.64
3.95 18.5 1.65
4.02 18.469999 1.65
4.0799999 18.459999 1.65
4.1500001 18.43 1.65
4.21 18.440001 1.65
4.29 18.450001 1.65
4.3499999 18.459999 1.65
4.4099998 18.41 1.65
4.4699998 18.41 1.65
4.5500002 18.41 1.65
4.6199999 18.440001 1.66
4.6900001 18.48 1.66
4.7600002 18.459999 1.66
4.8200002 18.440001 1.66
4.8899999 18.43 1.66
4.9499998 18.41 1.66
4.4000001 16.110001 1.46
4.4299998 16.059999 1.45
5.1700001 18.42 1.67
4.48 15.79 1.4299999
4.6100001 15.99 1.45
4.54 15.58 1.42
4.6500001 15.74 1.4299999
4.6999998 15.72 1.4299999
4.75 15.66 1.4299999
4.8299999 15.76 1.4400001
4.8200002 15.56 1.42
4.9000001 15.59 1.42
5.9000001 18.34 1.6799999
6.0900002 18.48 1.7
6.3499999 18.4 1.7
6.4099998 18.379999 1.7
6.9099998 18.33 1.71
7.04 18.35 1.72
7.3000002 18.25 1.72
7.5799999 18.360001 1.73
7.6300001 18.33 1.73
7.71 18.299999 1.73
8.54 16.07 1.59
8.5600004 16 1.58
8.8900003 16.059999 1.6
8.8400002 15.83 1.58
9.1199999 15.69 1.58
10.64 18.17 1.84
11.12 16.02 1.7
12.99 18.059999 1.9400001
13.06 18.01 1.9400001
11.74 16.08 1.74
13.23 18.01 1.95
13.31 17.969999 1.95
11.79 15.69 1.71
12.29 16.24 1.78
11.7 15.25 1.6799999
12.09 15.63 1.72
11.89 15.06 1.67
12.71 15.51 1.75
22.110001 24.139999 2.8599999
22.059999 23.93 2.8399999
21.959999 23.639999 2.8199999
21.870001 23.4 2.8
21.76 23.09 2.77
21.639999 22.83 2.75
21.57 22.620001 2.73
21.5 22.370001 2.71
21.4 22.129999 2.6900001
21.290001 21.85 2.6600001
21.209999 21.629999 2.6500001
21.15 21.4 2.6300001
21.059999 21.18 2.6099999
21.02 20.969999 2.5899999
20.889999 20.709999 2.5699999
20.969999 20.629999 2.5699999
21.17 20.700001 2.5899999
21.35 20.709999 2.5999999
21.51 20.74 2.6099999
21.68 20.780001 2.6199999
21.85 20.77 2.6300001
22 20.790001 2.6400001
22.18 20.799999 2.6600001
22.33 20.809999 2.6700001
22.51 20.809999 2.6800001
22.719999 20.879999 2.7
22.860001 20.84 2.7
23.040001 20.870001 2.72
23.26 20.9 2.73
23.440001 20.940001 2.75
23.610001 20.93 2.76
23.77 20.940001 2.77
24 20.969999 2.78
24.16 20.99 2.8
24.4 21.02 2.8099999
24.530001 21.01 2.8199999
24.85 21.110001 2.8499999
26.73 21.32 2.99
26.950001 21.360001 3
27.190001 21.370001 3.02
27.41 21.42 3.04
27.66 21.43 3.0599999
27.9 21.48 3.0799999
28.1 21.5 3.0899999
37.389999 22.32 3.8099999
24.610001 -12 3.3599999
24.07 -12.34 3.3199999
22.200001 -12.99 3.1500001
29.139999 -17.18 4.1500001
28.98 -17.24 4.1399999
17.780001 -10.65 2.54
17.76 -10.73 2.54
17.75 -10.8 2.55
17.73 -10.88 2.55
17.719999 -10.95 2.55
17.700001 -11.01 2.5599999
17.690001 -11.1 2.5599999
17.66 -11.16 2.5599999
17.639999 -11.24 2.5599999
17.620001 -11.31 2.5699999
17.610001 -11.4 2.5699999
17.6 -11.47 2.5799999
25.709999 -17.02 3.78
25.5 -17.02 3.76
25.32 -17.01 3.74
25.110001 -17.02 3.72
24.91 -16.99 3.7
24.73 -17.02 3.6800001
24.52 -16.98 3.6600001
14.31 -9.9899998 2.1400001
14.25 -10.01 2.1300001
14.19 -10.05 2.1300001
23.76 -16.950001 3.5799999
23.59 -16.940001 3.5599999
23.41 -16.950001 3.55
23.209999 -16.91 3.52
23.030001 -16.92 3.51
22.870001 -16.91 3.49
22.690001 -16.92 3.47
22.540001 -16.91 3.46
22.35 -16.91 3.4400001
22.17 -16.879999 3.4200001
22 -16.889999 3.4000001
21.860001 -16.879999 3.3900001
21.68 -16.879999 3.3699999
21.51 -16.860001 3.3499999
21.370001 -16.85 3.3399999
21.200001 -16.860001 3.3199999
21.059999 -16.84 3.3099999
20.9 -16.860001 3.29
20.75 -16.84 3.28
20.559999 -16.82 3.26
20.43 -16.82 3.25
20.27 -16.82 3.23
20.120001 -16.799999 3.22
19.969999 -16.809999 3.2
19.83 -16.790001 3.1900001
19.540001 -16.790001 3.1600001
19.42 -16.780001 3.1500001
19.25 -16.77 3.1300001
19.129999 -16.77 3.1199999
18.969999 -16.77 3.1099999
18.870001 -16.77 3.0999999
18.700001 -16.76 3.0799999
18.57 -16.74 3.0699999
18.43 -16.75 3.05
18.290001 -16.73 3.04
13.77 -12.69 2.3
13.75 -12.75 2.3
17.889999 -16.73 3
17.790001 -16.73 2.99
17.639999 -16.719999 2.98
17.52 -16.709999 2.97
17.379999 -16.709999 2.96
17.27 -16.700001 2.95
17.15 -16.68 2.9300001
17.02 -16.690001 2.9200001
16.9 -16.68 2.9100001
16.790001 -16.700001 2.9000001
16.66 -16.67 2.8900001
16.530001 -16.67 2.8800001
16.43 -16.68 2.8699999
13.02 -13.31 2.28
16.18 -16.65 2.8499999
16.059999 -16.66 2.8399999
15.95 -16.639999 2.8299999
15.84 -16.66 2.8199999
14.07 -14.89 2.51
13.93 -14.86 2.5
15.49 -16.620001 2.79
15.37 -16.629999 2.78
15.27 -16.620001 2.77
15.16 -16.629999 2.76
15.06 -16.620001 2.75
14.93 -16.610001 2.74
14.83 -16.6 2.73
14.71 -16.6 2.72
14.62 -16.6 2.71
14.53 -16.6 2.71
14.42 -16.6 2.7
14.31 -16.58 2.6900001
14.2 -16.58 2.6800001
14.11 -16.58 2.6700001
14.01 -16.6 2.6600001
13.89 -16.559999 2.6500001
13.79 -16.57 2.6400001
13.7 -16.559999 2.6400001
13.59 -16.559999 2.6300001
13.51 -16.57 2.6199999
13.39 -16.559999 2.6099999
13.32 -16.57 2.6099999
9.6099997 -12.06 1.89
9.5100002 -12 1.88
9.4499998 -12.02 1.87
9.3699999 -11.99 1.87
9.3199997 -12.01 1.86
9.3000002 -12.08 1.87
9.3100004 -12.17 1.88
9.3000002 -12.26 1.89
9.75 -12.93 1.99
9.0900002 -12.16 1.86
9.0200005 -12.13 1.85
8.9700003 -12.17 1.85
8.9499998 -12.22 1.86
11.98 -16.51 2.5
11.89 -16.48 2.49
11.8 -16.49 2.49
11.72 -16.48 2.48
11.62 -16.49 2.47
11.55 -16.49 2.47
11.47 -16.48 2.46
11.37 -16.48 2.46
11.27 -16.48 2.45
11.2 -16.469999 2.4400001
11.12 -16.459999 2.4400001
11.01 -16.450001 2.4300001
10.95 -16.459999 2.4200001
10.86 -16.469999 2.4200001
10.79 -16.459999 2.4100001
10.68 -16.450001 2.4000001
10.6 -16.43 2.4000001
10.52 -16.450001 2.3900001
10.44 -16.440001 2.3900001
10.37 -16.43 2.3800001
10.28 -16.43 2.3800001
10.21 -16.42 2.3699999
10.12 -16.43 2.3699999
10.03 -16.440001 2.3599999
9.9499998 -16.42 2.3499999
9.8599997 -16.42 2.3499999
9.79 -16.41 2.3399999
9.71 -16.42 2.3399999
9.6300001 -16.4 2.3299999
9.5500002 -16.42 2.3299999
9.4799995 -16.4 2.3199999
9.4099998 -16.4 2.3199999
9.3199997 -16.4 2.3099999
9.2600002 -16.389999 2.3099999
9.1700001 -16.389999 2.3
9.0900002 -16.379999 2.3
9.0100002 -16.379999 2.29
8.9399996 -16.370001 2.29
8.8699999 -16.389999 2.28
8.8000002 -16.379999 2.28
8.71 -16.379999 2.27
8.6400003 -16.360001 2.27
8.5600004 -16.370001 2.26
8.5 -16.370001 2.26
8.4200001 -16.379999 2.26
8.3500004 -16.35 2.25
8.2799997 -16.34 2.25
8.1999998 -16.35 2.24
8.1300001 -16.33 2.24
8.0500002 -16.34 2.23
7.9899998 -16.34 2.23
7.9099998 -16.34 2.23
7.8499999 -16.34 2.22
7.77 -16.33 2.22
7.71 -16.33 2.21
7.6300001 -16.33 2.21
7.5599999 -16.309999 2.2
7.4899998 -16.33 2.2
7.4200001 -16.32 2.2
7.3400002 -16.32 2.1900001
7.2800002 -16.309999 2.1900001
7.21 -16.32 2.1900001
7.1399999 -16.309999 2.1800001
7.0900002 -16.32 2.1800001
7.0100002 -16.309999 2.1800001
6.9499998 -16.299999 2.1700001
6.8699999 -16.299999 2.1700001
6.8099999 -16.290001 2.1600001
6.73 -16.280001 2.1600001
6.6799998 -16.309999 2.1600001
6.5999999 -16.290001 2.1600001
6.54 -16.280001 2.1500001
6.46 -16.280001 2.1500001
6.4099998 -16.280001 2.1500001
6.3400002 -16.299999 2.1400001
6.27 -16.27 2.1400001
6.21 -16.26 2.1300001
6.1399999 -16.27 2.1300001
6.0799999 -16.27 2.1300001
6.0100002 -16.27 2.1300001
5.9400001 -16.27 2.1199999
5.8800001 -16.26 2.1199999
5.8200002 -16.27 2.1199999
5.75 -16.26 2.1099999
5.6900001 -16.25 2.1099999
5.6100001 -16.23 2.1099999
5.5599999 -16.24 2.0999999
5.48 -16.23 2.0999999
5.4299998 -16.23 2.0999999
5.3600001 -16.24 2.0999999
5.3099999 -16.24 2.0999999
5.23 -16.23 2.0899999
5.1799998 -16.23 2.0899999
5.1100001 -16.25 2.0899999
5.0500002 -16.24 2.0799999
4.98 -16.23 2.0799999
4.9200001 -16.219999 2.0799999
4.8699999 -16.209999 2.0799999
4.8000002 -16.23 2.0799999
4.75 -16.209999 2.0699999
4.6700001 -16.209999 2.0699999
4.6199999 -16.209999 2.0699999
4.5500002 -16.209999 2.0599999
4.5 -16.200001 2.0599999
4.4299998 -16.200001 2.0599999
4.3699999 -16.190001 2.0599999
4.3000002 -16.200001 2.05
4.25 -16.190001 2.05
4.1799998 -16.200001 2.05
4.1300001 -16.200001 2.05
4.0599999 -16.190001 2.05
4.0100002 -16.18 2.04
3.9400001 -16.18 2.04
3.8900001 -16.190001 2.04
3.8199999 -16.18 2.04
3.76 -16.17 2.04
3.7 -16.17 2.03
3.6500001 -16.17 2.03
3.5899999 -16.16 2.03
3.53 -16.17 2.03
3.47 -16.16 2.03
3.4000001 -16.15 2.02
3.3499999 -16.139999 2.02
3.29 -16.16 2.02
3.24 -16.16 2.02
3.1700001 -16.139999 2.02
3.1099999 -16.129999 2.01
3.05 -16.139999 2.01
3 -16.129999 2.01
2.9300001 -16.139999 2.01
2.8800001 -16.139999 2.01
2.8299999 -16.120001 2.01
2.76 -16.120001 2
2.71 -16.120001 2
2.6500001 -16.139999 2
2.5999999 -16.120001 2
2.53 -16.110001 2
2.48 -16.110001 2
2.4100001 -16.120001 2
2.3599999 -16.110001 2
2.3 -16.1 1.99
2.25 -16.1 1.99
2.1800001 -16.1 1.99
2.1300001 -16.110001 1.99
2.0699999 -16.110001 1.99
2.01 -16.08 1.99
1.95 -16.09 1.99
1.9 -16.08 1.99
1.84 -16.09 1.99
1.79 -16.09 1.98
1.72 -16.08 1.98
1.67 -16.08 1.98
1.61 -16.08 1.98
1.5599999 -16.08 1.98
1.49 -16.08 1.98
1.4400001 -16.07 1.98
1.39 -16.059999 1.98
1.33 -16.07 1.98
1.28 -16.059999 1.98
1.22 -16.08 1.98
1.17 -16.059999 1.97
1.1 -16.059999 1.97
1.05 -16.059999 1.97
0.99000001 -16.059999 1.97
0.94 -16.059999 1.97
0.88 -16.049999 1.97
0.82999998 -16.059999 1.97
0.75999999 -16.059999 1.97
0.72000003 -16.049999 1.97
0.64999998 -16.040001 1.97
0.60000002 -16.049999 1.97
0.54000002 -16.030001 1.97
0.49000001 -16.049999 1.97
0.44 -16.049999 1.97
0.38 -16.030001 1.97
0.33000001 -16.02 1.96
0.25999999 -16.01 1.96
0.22 -16.02 1.96
0.15000001 -16.030001 1.97
0.1 -16.02 1.96
0.039999999 -16.01 1.96
-0.050000001 -16.01 1.96
-0.1 -16 1.96
-0.16 -16.02 1.96
-0.20999999 -16 1.96
-0.28 -15.99 1.96
-0.31999999 -16.01 1.96
-0.38999999 -16.01 1.96
-0.44 -15.99 1.96
-0.5 -15.98 1.96
-0.55000001 -15.99 1.96
-0.61000001 -15.99 1.96
-0.66000003 -15.98 1.96
-0.73000002 -16 1.96
-0.76999998 -15.98 1.96
-0.57999998 -11.44 1.4
-0.88 -15.98 1.96
-0.93000001 -15.97 1.96
-1 -15.96 1.96
-1.11 -15.96 1.96
-1.16 -15.98 1.96
-1.22 -15.96 1.96
-1.27 -15.97 1.96
-1.33 -15.95 1.96
-1.38 -15.94 1.96
-1.45 -15.96 1.96
-1.5 -15.97 1.97
-1.5599999 -15.94 1.96
-1.61 -15.94 1.96
-1.67 -15.93 1.96
-1.72 -15.94 1.97
-1.77 -15.93 1.97
-1.83 -15.94 1.97
-1.88 -15.93 1.97
-1.9400001 -15.92 1.97
-1.99 -15.92 1.97
-2.05 -15.92 1.97
-2.1099999 -15.93 1.97
-2.1700001 -15.92 1.97
-2.22 -15.91 1.97
-2.28 -15.92 1.97
-2.3299999 -15.92 1.97
-2.4000001 -15.92 1.97
-2.4400001 -15.91 1.97
-2.51 -15.89 1.97
-2.5599999 -15.89 1.97
-2.6199999 -15.9 1.98
-2.6700001 -15.9 1.98
-2.74 -15.91 1.98
-2.78 -15.89 1.98
-2.8499999 -15.88 1.98
-2.9000001 -15.89 1.98
-2.96 -15.89 1.98
-3.01 -15.88 1.98
-3.0799999 -15.87 1.98
-3.1199999 -15.86 1.98
-3.1900001 -15.87 1.98
-3.24 -15.88 1.99
-3.29 -15.86 1.99
-3.3599999 -15.87 1.99
-3.4100001 -15.87 1.99
-3.48 -15.88 1.99
-3.53 -15.88 1.99
-3.5899999 -15.85 1.99
-3.6400001 -15.85 1.99
-3.7 -15.85 2
-3.75 -15.85 2
-3.8199999 -15.85 2
-3.8699999 -15.84 2
-3.9300001 -15.83 2
-3.99 -15.84 2
-4.04 -15.83 2
-4.0999999 -15.84 2.01
-4.1500001 -15.83 2.01
-4.2199998 -15.81 2.01
-4.27 -15.82 2.01
-4.3400002 -15.81 2.01
-4.3899999 -15.83 2.01
-4.46 -15.83 2.02
-4.5100002 -15.82 2.02
-4.5700002 -15.8 2.02
-4.6300001 -15.82 2.02
-4.6900001 -15.81 2.02
-4.7399998 -15.8 2.02
-4.8099999 -15.79 2.02
-4.8600001 -15.79 2.03
-4.9299998 -15.78 2.03
-4.98 -15.79 2.03
-5.0500002 -15.79 2.03
-5.0900002 -15.76 2.03
-5.1500001 -15.77 2.03
-5.2199998 -15.78 2.04
-5.2800002 -15.79 2.04
-5.3400002 -15.77 2.04
-3.9200001 -11.47 1.49
-3.9400001 -11.39 1.48
-3.97 -11.35 1.47
-4.02 -11.35 1.48
-4.04 -11.29 1.47
-4.0900002 -11.28 1.47
-4.1300001 -11.29 1.47
-4.1599998 -11.28 1.47
-4.23 -11.32 1.48
-4.2800002 -11.36 1.49
-6.0100002 -15.74 2.0699999
-6.0799999 -15.74 2.0699999
-6.1399999 -15.75 2.0699999
-6.1900001 -15.74 2.0699999
-6.2600002 -15.73 2.0799999
-3.55 -8.6800003 1.15
-3.73 -9.0100002 1.1900001
-3.77 -9.0299997 1.2
-4.8600001 -11.51 1.53
-4.9000001 -11.5 1.53
-4.9200001 -11.44 1.53
-4.96 -11.44 1.53
-5 -11.4 1.53
-5.0300002 -11.37 1.52
-5.0999999 -11.4 1.53
-8.2600002 -18.309999 2.46
-5.54 -12.15 1.64
-5.54 -12.07 1.63
-5.5799999 -12.02 1.62
-5.6100001 -11.99 1.62
-5.6700001 -11.99 1.63
-5.71 -11.99 1.63
-5.73 -11.94 1.62
-5.79 -11.94 1.63
-5.8299999 -11.92 1.63
-5.8899999 -11.92 1.63
-5.9499998 -11.96 1.64
-7.8499999 -15.62 2.1400001
-7.9699998 -15.74 2.1600001
-8.1300001 -15.89 2.1900001
-8.1800003 -15.88 2.1900001
-8.2299995 -15.82 2.1900001
-8.1999998 -15.65 2.1700001
-8.1899996 -15.47 2.1500001
-8.3000002 -15.56 2.1600001
-8.3699999 -15.54 2.1600001
-8.3900003 -15.47 2.1600001
-8.3400002 -15.23 2.1300001
-8.4499998 -15.32 2.1500001
-8.54 -15.34 2.1500001
-8.8100004 -15.72 2.21
-8.6999998 -15.38 2.1700001
-8.8000002 -15.45 2.1800001
-8.9499998 -15.6 2.21
-10.53 -18.17 2.5799999
-8.5699997 -14.69 2.0899999
-8.6199999 -14.55 2.0699999
-10.85 -18.139999 2.5899999
-10.95 -18.190001 2.5999999
-9.0299997 -14.86 2.1300001
-9.46 -15.47 2.22
-11.2 -18.15 2.6199999
-9.1800003 -14.78 2.1300001
-8.8999996 -14.23 2.0599999
-11.45 -18.139999 2.6300001
-11.52 -18.139999 2.6400001
-11.62 -18.120001 2.6400001
-8.9300003 -13.85 2.02
-11.79 -18.110001 2.6500001
-9.8999996 -15.11 2.22
-9.96 -15.07 2.22
-12.04 -18.1 2.6700001
-8.2799997 -12.35 1.8200001
-8.3199997 -12.32 1.8200001
-8.3800001 -12.3 1.83
-8.4300003 -12.29 1.83
-8.4700003 -12.25 1.83
-8.5200005 -12.24 1.83
-9.0799999 -12.94 1.9400001
-9.1099997 -12.9 1.9400001
-9.0299997 -12.67 1.91
-9.0799999 -12.66 1.91
-8.9700003 -12.4 1.88
-8.9200001 -12.26 1.86
-8.9700003 -12.23 1.86
-9.0299997 -12.23 1.86
-9.0699997 -12.18 1.86
-9.0600004 -12.1 1.85
-9.1400003 -12.1 1.86
-8.9099998 -11.72 1.8099999
-8.96 -11.72 1.8099999
-9.0299997 -11.7 1.8099999
-9 -11.6 1.8
-8.9499998 -11.44 1.78
-8.7799997 -11.15 1.74
-8.8000002 -11.08 1.74
-8.8500004 -11.08 1.74
-9.0600004 -11.25 1.77
-7.3600001 -9.0799999 1.4299999
-7.4099998 -9.0699997 1.4400001
-7.4000001 -9 1.4299999
-7.4400001 -8.9799995 1.4299999
-7.4899998 -8.9899998 1.4299999
-9.4300003 -11.21 1.8
-9.54 -11.28 1.8099999
-9.0100002 -10.5 1.7
-9.0299997 -10.46 1.6900001
-9 -10.34 1.6799999
-9.0500002 -10.32 1.6799999
-9.3500004 -10.59 1.73
-9.29 -10.46 1.72
-9.8400002 -10.99 1.8099999
-9.4399996 -10.46 1.73
-9.4099998 -10.37 1.72
-9.4700003 -10.37 1.72
-9.4899998 -10.31 1.72
-9.7299995 -10.5 1.76
-9.4700003 -10.14 1.7
-9.8699999 -10.5 1.77
-10 -10.56 1.78
-9.0299997 -9.4799995 1.6
-9.0600004 -9.4399996 1.6
-9.1000004 -9.4200001 1.61
-9.1400003 -9.3800001 1.61
-10.13 -10.34 1.77
-9.9700003 -10.09 1.74
-9.1000004 -9.1599998 1.58
-9.1300001 -9.1199999 1.58
-7.3600001 -7.3099999 1.27
-7.5500002 -7.4499998 1.3
-7.5799999 -7.4200001 1.3
-7.5999999 -7.4000001 1.3
-9.4099998 -9.0799999 1.6
-7.6500001 -7.3400002 1.3
-7.6900001 -7.3099999 1.3
-7.6700001 -7.25 1.29
-7.71 -7.2399998 1.3
-7.75 -7.23 1.3
-8.3900003 -7.7600002 1.4
-8.5600004 -7.8699999 1.4299999
-8.5799999 -7.8299999 1.42
-8.6300001 -7.8200002 1.4299999
-8.6499996 -7.7800002 1.4299999
-8.6700001 -7.75 1.42
-10.44 -9.2600002 1.71
-10 -8.8100004 1.63
-10.04 -8.7799997 1.63
-10.05 -8.7399998 1.63
-10.18 -8.79 1.65
-10.44 -8.9499998 1.6900001
-10.44 -8.8999996 1.6799999
-10.48 -8.8500004 1.6799999
-10.43 -8.7600002 1.67
-10.41 -8.6700001 1.66
-10.39 -8.6000004 1.65
-10.44 -8.5699997 1.66
-10.44 -8.5200005 1.65
-10.49 -8.4899998 1.65
-10.54 -8.4799995 1.66
-25.16 -20.08 3.95
-25.129999 -19.93 3.9400001
-25.110001 -19.790001 3.9200001
-25.1 -19.620001 3.9100001
-25.110001 -19.51 3.9000001
-25.1 -19.34 3.8900001
-25.110001 -19.190001 3.8800001
-25.08 -19.049999 3.8699999
-25.09 -18.9 3.8499999
-25.09 -18.780001 3.8499999
-25.08 -18.65 3.8399999
-25.07 -18.219999 3.8
-25.059999 -18.1 3.79
-25.059999 -17.950001 3.78
-25.059999 -17.84 3.77
-25.030001 -17.66 3.76
-25.040001 -17.549999 3.75
-25.040001 -17.41 3.74
-25.030001 -17.290001 3.73
-25.030001 -17.139999 3.72
-25.01 -17.02 3.71
-25 -16.9 3.7
-25.02 -16.77 3.7
-25.030001 -16.629999 3.6900001
-25 -16.5 3.6800001
-24.969999 -16.34 3.6600001
-25 -16.25 3.6600001
-24.99 -16.139999 3.6500001
-24.99 -16 3.6400001
-24.98 -15.89 3.6300001
-24.98 -15.74 3.6199999
-24.959999 -15.63 3.6099999
-24.969999 -15.5 3.6099999
-24.950001 -15.38 3.5999999
-24.959999 -15.25 3.5899999
-24.940001 -15.13 3.5799999
-24.940001 -15 3.5699999
-24.950001 -14.9 3.5699999
-25.129999 -14.87 3.5799999
-25.280001 -14.86 3.5999999
-25.49 -14.85 3.6199999
-25.67 -14.85 3.6400001
-25.870001 -14.83 3.6600001
-26.049999 -14.83 3.6800001
-26.24 -14.83 3.7
-26.41 -14.78 3.71
-26.65 -14.81 3.74
-26.84 -14.78 3.76
-27.040001 -14.79 3.78
-27.23 -14.75 3.8
-27.459999 -14.76 3.8299999
-27.66 -14.73 3.8499999
-27.870001 -14.74 3.8699999
-28.1 -14.72 3.8900001
-28.27 -14.7 3.9100001
-28.48 -14.7 3.9300001
-28.76 -14.7 3.96
-28.940001 -14.68 3.98
-29.200001 -14.67 4.0100002
-29.41 -14.66 4.0300002
-29.66 -14.63 4.0599999
-29.879999 -14.6 4.0799999
-30.15 -14.61 4.1100001
-30.4 -14.59 4.1399999
-30.6 -14.57 4.1599998
-30.66 -14.49 4.1599998
-31.129999 -14.55 4.2199998
-31.35 -14.54 4.2399998
-31.66 -14.54 4.2800002
-31.889999 -14.52 4.3000002
-32.16 -14.49 4.3299999
-32.34 -14.46 4.3499999
-32.470001 -14.36 4.3600001
-33.27 -14.6 4.46
-33.540001 -14.55 4.4899998
-33.799999 -14.54 4.52
-34.110001 -14.52 4.5500002
-34.400002 -14.52 4.5799999
-34.439999 -14.41 4.5799999
-34.540001 -14.29 4.5900002
-34.68 -14.23 4.5999999
-35.52 -14.41 4.6999998
-35.880001 -14.43 4.75
-36.18 -14.38 4.7800002
-36.529999 -14.4 4.8200002
-36.599998 -14.25 4.8200002
-36.709999 -14.17 4.8299999
-37.77 -14.41 4.96
-38.119999 -14.41 5
-38.5 -14.38 5.04
-38.669998 -14.31 5.0599999
-38.689999 -14.19 5.0599999
-38.84 -14.06 5.0700002
-39.959999 -14.33 5.21
-40.360001 -14.29 5.25
-40.73 -14.29 5.3000002
-40.830002 -14.14 5.3000002
-40.880001 -14.02 5.3000002
-41.139999 -13.92 5.3299999
-42.380001 -14.2 5.48
-42.779999 -14.15 5.5300002
-42.950001 -14.06 5.5500002
-43.040001 -13.9 5.5500002
-43.259998 -13.83 5.5700002
-44.639999 -14.07 5.7399998
-45.040001 -14.05 5.79
-45.110001 -13.87 5.79
-45.240002 -13.77 5.8000002
-47.060001 -13.96 6.02
-47.27 -13.82 6.04
-47.290001 -13.67 6.04
-49.16 -13.84 6.27
-22.58 -5.5999999 2.8499999
-55.790001 -13.44 7.04
-55.869999 -13.22 7.0500002
-57.919998 -13.28 7.29
-58.029999 -13.12 7.3000002
-60.060001 -13.14 7.5500002
-20.940001 -4.0500002 2.6199999
-20.950001 -3.96 2.6099999
-21.02 -3.9100001 2.6199999
-21.52 -3.9200001 2.6800001
-41.849998 -7.0300002 5.21
-40.290001 -6.6399999 5.0100002
-40.360001 -6.48 5.02
-40.459999 -6.3699999 5.0300002
-40.860001 -5.6900001 5.0599999
-43.32 -5.5900002 5.3600001
-43.759998 -4.8899999 5.4000001
-43.459999 -4.6799998 5.3600001
-43.66 -4.5700002 5.3899999
-43.709999 -4.4000001 5.3899999
-43.830002 -4.2800002 5.4000001
-56.82 27.83 7.7600002
-56.549999 27.91 7.7399998
-56.470001 28.08 7.7399998
-56.459999 29.57 7.8200002
-56.450001 29.85 7.8400002
-47.849998 29.959999 6.9299998
-47.529999 30.23 6.9099998
-47.560001 30.92 6.96
-47.5 31.360001 6.9899998
-47.450001 31.799999 7.0100002
-47.450001 32.290001 7.04
-47.43 32.48 7.0599999
-47.419998 32.75 7.0700002
-47.380001 33.009998 7.0900002
-47.419998 33.25 7.1100001
-47.380001 33.439999 7.1199999
-47.360001 33.700001 7.1300001
-47.41 33.950001 7.1599998
-47.41 34.459999 7.1900001
-47.349998 34.700001 7.1999998
-47.279999 36.130001 7.3000002
-47.290001 36.439999 7.3299999
-22.67 21.57 3.8399999
-22.559999 21.639999 3.8399999
-22.18 21.41 3.78
-22.059999 21.459999 3.78
-21.879999 21.41 3.76
-21.74 21.440001 3.75
-21.639999 21.469999 3.74
-21.51 21.52 3.73
-21.379999 21.52 3.72
-21.209999 21.52 3.71
-21.049999 21.49 3.6900001
-20.9 21.51 3.6800001
-20.76 21.49 3.6700001
-20.58 21.48 3.6500001
-20.459999 21.469999 3.6400001
-20.280001 21.459999 3.6199999
-20.15 21.459999 3.6099999
-20 21.459999 3.5999999
-19.85 21.43 3.5799999
-19.68 21.42 3.5699999
-19.559999 21.41 3.5599999
-19.43 21.4 3.55
-19.280001 21.41 3.53
-19.139999 21.389999 3.52
-19 21.4 3.51
-18.85 21.35 3.49
-18.709999 21.370001 3.48
-18.59 21.360001 3.47
-18.43 21.35 3.46
-18.299999 21.33 3.45
-18.18 21.360001 3.4400001
-18.040001 21.33 3.4300001
-15.4 18.35 2.9400001
-15.41 18.48 2.95
-15.27 18.459999 2.9400001
-15.88 19.32 3.0699999
-15.38 18.870001 2.99
-15.3 18.879999 2.98
-15.41 19.139999 3.01
-15.52 19.43 3.05
-14.89 18.76 2.9400001
-14.85 18.860001 2.9400001
-14.78 18.889999 2.9400001
-14.67 18.9 2.9300001
-16.25 21.07 3.26
-16.209999 21.190001 3.27
-14.53 19.110001 2.9400001
-15.99 21.209999 3.26
-15.9 21.219999 3.25
-14.98 20.16 3.0799999
-14.92 20.209999 3.0799999
-14.78 20.190001 3.0699999
-14.83 20.379999 3.0899999
-15.19 21.18 3.2
-15.02 21.129999 3.1800001
-14.92 21.110001 3.1700001
-14.79 21.120001 3.1600001
-14.7 21.129999 3.1600001
-14.62 21.139999 3.1500001
-14.5 21.139999 3.1400001
-14.39 21.129999 3.1400001
-14.27 21.129999 3.1300001
-14.18 21.129999 3.1199999
-14.05 21.120001 3.1099999
-13.95 21.1 3.0999999
-13.84 21.120001 3.0999999
-13.74 21.110001 3.0899999
-13.58 21.049999 3.0699999
-13.48 21.030001 3.0599999
-13.37 21.040001 3.0599999
-13.3 21.07 3.0599999
-13.19 21.09 3.05
-13.09 21.059999 3.04
-12.99 21.049999 3.03
-12.88 21.059999 3.03
-12.78 21.040001 3.02
-12.68 21.059999 3.01
-12.59 21.049999 3.01
-12.48 21.059999 3
-12.36 21.049999 2.99
-12.27 21.040001 2.99
-12.13 20.950001 2.97
-11.85 20.65 2.9200001
-11.76 20.629999 2.9100001
-11.65 20.639999 2.9100001
-11.56 20.620001 2.9000001
-11.56 20.82 2.9200001
-11.57 20.99 2.9400001
-11.61 21.25 2.97
-11.67 21.51 3
-11.59 21.57 3
-11.51 21.57 3
-11.39 21.57 2.99
-11.33 21.610001 2.99
-11.22 21.6 2.98
-11.13 21.6 2.98
-11.05 21.6 2.98
-10.95 21.610001 2.97
-10.85 21.58 2.96
-10.75 21.58 2.96
-10.66 21.58 2.95
-10.56 21.58 2.95
-10.47 21.57 2.9400001
-10.35 21.530001 2.9300001
-10.25 21.51 2.9200001
-10.15 21.5 2.9200001
-10.06 21.5 2.9100001
-9.9700003 21.51 2.9100001
-9.8800001 21.49 2.9000001
-9.7799997 21.5 2.9000001
-9.6899996 21.48 2.8900001
-9.6099997 21.469999 2.8800001
-9.5200005 21.49 2.8800001
-8.1099997 18.52 2.48
-7.77 17.889999 2.3900001
-9.25 21.459999 2.8699999
-9.1400003 21.450001 2.8599999
-9.0600004 21.450001 2.8599999
-8.9700003 21.459999 2.8499999
-7.3699999 17.780001 2.3599999
-8.79 21.459999 2.8399999
-7.3899999 18.190001 2.4100001
-8.6099997 21.43 2.8299999
-8.5200005 21.41 2.8299999
-8.4200001 21.41 2.8199999
-8.3500004 21.42 2.8199999
-8.25 21.42 2.8099999
-8.0600004 21.110001 2.77
-7.9400001 21.049999 2.76
-7.8600001 21.030001 2.75
-7.77 21.030001 2.75
-7.6999998 21.030001 2.75
-7.6199999 21.08 2.75
-7.6799998 21.459999 2.79
-7.7800002 21.93 2.8499999
-7.8200002 22.33 2.9000001
-7.8800001 22.73 2.95
-7.9400001 23.18 3
-8.0100002 23.620001 3.0599999
-8.0699997 24.110001 3.1199999
-8.1599998 24.629999 3.1800001
-8.1999998 25.08 3.24
-8.3000002 25.65 3.3099999
-8.3599997 26.200001 3.3699999
-8.4499998 26.76 3.4400001
-8.54 27.41 3.52
-8.6400003 28.02 3.5999999
-8.71 28.68 3.6800001
-8.8299999 29.370001 3.76
-8.9399996 30.17 3.8599999
-9.0699997 30.959999 3.96
-9.1199999 31.610001 4.04
-8.4799995 30.059999 3.8299999
-8.3599997 30.09 3.8299999
-8.2600002 30.09 3.8299999
-8.1300001 30.08 3.8199999
-8.0299997 30.07 3.8199999
-7.9000001 30.059999 3.8099999
-7.8000002 30.07 3.8099999
-1.37 20.790001 2.55
-1.28 20.76 2.55
-1.22 20.799999 2.55
-1.14 20.75 2.55
-1.0700001 20.77 2.55
-1.14 25.370001 3.1099999
-1.0599999 25.379999 3.1099999
-0.95999998 25.379999 3.1099999
-0.83999997 30.139999 3.7
-0.72000003 30.15 3.7
1.49 16.07 1.98
1.5599999 16.120001 1.98
2.23 22.32 2.75
1.77 16.540001 2.04
1.78 16.049999 1.98
2.4100001 21.15 2.6099999
2.49 21.15 2.6099999
2.5599999 21.139999 2.6099999
2.6400001 21.129999 2.6099999
2.0599999 16.1 1.99
2.8 21.15 2.6199999
2.8599999 21.129999 2.6099999
2.9400001 21.1 2.6099999
2.24 15.76 1.95
2.3099999 15.78 1.95
3.25 18.639999 2.3199999
3.3399999 18.440001 2.3
3.4200001 18.459999 2.3
3.48 18.469999 2.3
3.55 18.440001 2.3
3.6199999 18.459999 2.3099999
3.6800001 18.42 2.3
3.74 18.43 2.3
3.8299999 18.450001 2.3099999
3.8800001 18.440001 2.3099999
3.95 18.42 2.3099999
4.02 18.459999 2.3199999
4.0900002 18.440001 2.3199999
4.1500001 18.450001 2.3199999
4.23 18.43 2.3199999
4.2800002 18.4 2.3099999
4.3499999 18.450001 2.3199999
4.4200001 18.41 2.3199999
4.4899998 18.469999 2.3299999
4.5500002 18.389999 2.3199999
4.6100001 18.41 2.3299999
4.6900001 18.43 2.3299999
4.75 18.42 2.3299999
4.3699999 16.190001 2.0599999
4.3200002 15.83 2.01
4.4499998 16.049999 2.04
5.1799998 18.48 2.3499999
4.54 15.94 2.03
4.5799999 15.91 2.03
4.5900002 15.75 2.01
4.6799998 15.82 2.02
4.6900001 15.7 2.01
4.77 15.72 2.01
4.8899999 15.74 2.02
4.9000001 15.59 2
5.0100002 15.73 2.02
5.1999998 15.79 2.04
8.8500004 15.83 2.22
12.34 18.049999 2.6800001
12.47 18.09 2.6900001
12.55 18.09 2.7
12.63 18.040001 2.7
11.61 15.91 2.4100001
11.7 15.79 2.4100001
11.64 15.58 2.3800001
11.84 15.75 2.4200001
11.81 15.61 2.4000001
25.18 23.42 4.2199998
25.059999 23.17 4.1900001
24.950001 22.879999 4.1500001
24.780001 22.59 4.1100001
24.68 22.32 4.0799999
24.49 22.02 4.04
24.780001 22.1 4.0700002
15.98 -9.1999998 2.9200001
11.92 -6.9200001 2.1800001
11.9 -6.96 2.1800001
11.9 -7.02 2.1900001
11.8 -7.0100002 2.1700001
11.79 -7.0599999 2.1700001
11.75 -7.0999999 2.1700001
13.78 -8.3800001 2.55
15.49 -9.5100002 2.8800001
15.46 -9.5500002 2.8699999
15.5 -9.6599998 2.8900001
12.78 -8.0200005 2.3900001
12.72 -8.0500002 2.3800001
12.72 -8.1099997 2.3900001
13.01 -8.3599997 2.45
12.65 -8.1899996 2.3800001
12.6 -8.2299995 2.3800001
12.61 -8.29 2.3900001
12.55 -8.3199997 2.3800001
12.57 -8.3900003 2.3900001
12.5 -8.4099998 2.3800001
12.67 -8.5799999 2.4200001
12.65 -8.6400003 2.4200001
12.63 -8.6800003 2.4200001
12.61 -8.7200003 2.4300001
14.17 -9.8900003 2.73
14.15 -9.9399996 2.74
14.1 -9.9899998 2.73
15.27 -10.89 2.97
14.09 -10.13 2.75
14.09 -10.2 2.75
14.08 -10.28 2.76
14.02 -10.3 2.75
15.59 -11.52 3.0699999
15.92 -11.87 3.1400001
15.12 -11.34 2.99
15 -11.35 2.98
21.9 -16.809999 4.3699999
15.8 -12.2 3.1600001
21.559999 -16.790001 4.3299999
21.41 -16.780001 4.3099999
21.26 -16.790001 4.29
21.09 -16.77 4.2600002
20.92 -16.77 4.2399998
20.780001 -16.76 4.2199998
20.620001 -16.77 4.21
20.48 -16.75 4.1900001
20.309999 -16.75 4.1700001
20.17 -16.74 4.1500001
20.02 -16.75 4.1300001
19.879999 -16.73 4.1100001
19.75 -16.73 4.0999999
19.58 -16.709999 4.0700002
19.469999 -16.719999 4.0599999
19.290001 -16.700001 4.04
14.16 -12.34 2.97
14 -12.29 2.95
18.889999 -16.690001 3.99
14.36 -12.79 3.04
18.610001 -16.67 3.95
18.459999 -16.68 3.9400001
18.35 -16.67 3.9200001
18.209999 -16.68 3.9100001
13.55 -12.49 2.9200001
13.6 -12.6 2.9300001
17.809999 -16.65 3.8599999
17.700001 -16.65 3.8499999
17.559999 -16.639999 3.8299999
17.43 -16.629999 3.8099999
17.299999 -16.629999 3.8
17.200001 -16.629999 3.79
17.059999 -16.629999 3.77
16.940001 -16.610001 3.76
16.799999 -16.610001 3.74
16.709999 -16.620001 3.73
16.57 -16.620001 3.71
16.459999 -16.6 3.7
16.33 -16.610001 3.6900001
8.6999998 -8.8900003 1.97
16.1 -16.6 3.6600001
15.99 -16.58 3.6500001
15.87 -16.59 3.6300001
15.76 -16.58 3.6199999
15.65 -16.559999 3.6099999
15.54 -16.58 3.5999999
15.42 -16.549999 3.5799999
15.32 -16.57 3.5699999
12.95 -14.09 3.03
15.09 -16.559999 3.55
14.99 -16.549999 3.53
12.87 -14.32 3.05
14.78 -16.549999 3.51
14.67 -16.549999 3.5
14.56 -16.530001 3.49
14.45 -16.540001 3.48
7.29 -8.3900003 1.76
14.26 -16.52 3.45
7.04 -8.2200003 1.71
7 -8.2200003 1.71
6.9699998 -8.2600002 1.71
7.0100002 -8.3500004 1.72
7.02 -8.4300003 1.73
6.9499998 -8.4099998 1.73
6.9200001 -8.4200001 1.72
6.96 -8.5500002 1.74
6.9699998 -8.6099997 1.75
9.1999998 -11.46 2.3199999
9.1400003 -11.47 2.3199999
9.1000004 -11.5 2.3199999
9.1099997 -11.59 2.3299999
9.5100002 -12.17 2.4400001
9.9799995 -12.89 2.5799999
9.9300003 -12.9 2.5699999
6.1999998 -8.1199999 1.61
6.1900001 -8.1499996 1.62
6.1700001 -8.1899996 1.62
6.1999998 -8.2799997 1.64
6.1599998 -8.29 1.63
6.1199999 -8.3000002 1.63
6.1199999 -8.3599997 1.64
6.1999998 -8.5299997 1.67
11.85 -16.459999 3.21
11.76 -16.43 3.2
8.5600004 -12.04 2.3399999
6.02 -8.54 1.65
8.4499998 -12.06 2.3299999
8.3800001 -12.07 2.3299999
8.3299999 -12.08 2.3199999
8.2799997 -12.1 2.3199999
8.25 -12.14 2.3199999
11.06 -16.41 3.1300001
10.99 -16.41 3.1300001
10.89 -16.41 3.1199999
10.82 -16.41 3.1099999
10.72 -16.4 3.0999999
10.65 -16.4 3.0899999
10.57 -16.41 3.0899999
10.48 -16.389999 3.0799999
10.4 -16.370001 3.0699999
10.32 -16.389999 3.0599999
10.25 -16.389999 3.0599999
10.16 -16.379999 3.05
10.09 -16.379999 3.04
9.9899998 -16.370001 3.03
9.9200001 -16.360001 3.03
9.8400002 -16.370001 3.02
9.7700005 -16.370001 3.02
9.6800003 -16.370001 3.01
9.6000004 -16.35 3
9.5200005 -16.360001 3
9.46 -16.360001 2.99
9.3699999 -16.370001 2.99
9.3000002 -16.35 2.98
9.21 -16.35 2.97
9.1400003 -16.35 2.96
9.0699997 -16.360001 2.96
8.9899998 -16.34 2.95
8.8999996 -16.34 2.9400001
8.8400002 -16.34 2.9400001
8.75 -16.34 2.9300001
4.8000002 -9.0299997 1.62
8.6199999 -16.32 2.9200001
5.0300002 -9.6099997 1.71
8.4700003 -16.309999 2.9100001
8.3900003 -16.32 2.9000001
8.3299999 -16.309999 2.9000001
8.2399998 -16.309999 2.8900001
8.1800003 -16.299999 2.8900001
8.1000004 -16.309999 2.8800001
8.0299997 -16.299999 2.8800001
7.9499998 -16.299999 2.8699999
7.9000001 -16.32 2.8699999
7.8099999 -16.290001 2.8599999
7.7399998 -16.280001 2.8499999
7.6700001 -16.290001 2.8499999
7.5999999 -16.280001 2.8399999
7.5500002 -16.290001 2.8399999
7.4699998 -16.280001 2.8299999
7.3899999 -16.26 2.8299999
7.3299999 -16.280001 2.8299999
7.2600002 -16.27 2.8199999
7.1900001 -16.280001 2.8199999
7.1300001 -16.27 2.8099999
7.0500002 -16.27 2.8099999
6.9899998 -16.26 2.8
6.9099998 -16.26 2.8
6.8499999 -16.26 2.79
6.79 -16.24 2.79
6.71 -16.25 2.78
6.6500001 -16.24 2.78
6.5799999 -16.24 2.77
6.5300002 -16.26 2.77
6.4499998 -16.26 2.77
6.3600001 -16.219999 2.76
6.3099999 -16.219999 2.75
6.25 -16.23 2.75
6.1799998 -16.24 2.75
6.1300001 -16.24 2.75
6.0500002 -16.23 2.74
5.9899998 -16.219999 2.74
5.9200001 -16.23 2.73
5.8600001 -16.209999 2.73
5.79 -16.219999 2.73
5.73 -16.209999 2.72
5.6599998 -16.209999 2.72
5.5999999 -16.209999 2.71
5.5500002 -16.200001 2.71
5.4699998 -16.200001 2.71
5.4000001 -16.200001 2.7
5.3499999 -16.200001 2.7
5.29 -16.190001 2.7
5.2199998 -16.200001 2.6900001
5.1500001 -16.190001 2.6900001
5.0900002 -16.190001 2.6900001
5.04 -16.190001 2.6800001
4.9699998 -16.190001 2.6800001
3.3699999 -11.11 1.84
3.3299999 -11.13 1.84
3.3 -11.16 1.84
3.27 -11.22 1.85
3.24 -11.24 1.85
4.5999999 -16.18 2.6600001
4.54 -16.16 2.6600001
4.4699998 -16.16 2.6500001
4.4200001 -16.16 2.6500001
4.3499999 -16.17 2.6500001
4.29 -16.16 2.6500001
4.2199998 -16.139999 2.6400001
4.1700001 -16.16 2.6400001
4.1199999 -16.15 2.6400001
4.0500002 -16.15 2.6300001
4 -16.15 2.6300001
3.9300001 -16.139999 2.6300001
3.8699999 -16.129999 2.6199999
3.8 -16.120001 2.6199999
3.76 -16.129999 2.6199999
3.6900001 -16.139999 2.6199999
3.6400001 -16.139999 2.6199999
3.5699999 -16.129999 2.6099999
3.51 -16.120001 2.6099999
3.45 -16.139999 2.6099999
3.4000001 -16.129999 2.6099999
3.3299999 -16.129999 2.6099999
2.46 -12.09 1.95
2.4300001 -12.15 1.96
3.1600001 -16.110001 2.5999999
3.1099999 -16.120001 2.5999999
3.04 -16.110001 2.5899999
2.99 -16.1 2.5899999
2.9200001 -16.1 2.5899999
2.8699999 -16.09 2.5899999
2.8099999 -16.1 2.5899999
2.76 -16.09 2.5799999
2.6900001 -16.1 2.5799999
2.6400001 -16.09 2.5799999
2.5799999 -16.1 2.5799999
2.52 -16.09 2.5799999
2.46 -16.07 2.5699999
2.4100001 -16.08 2.5699999
2.3399999 -16.07 2.5699999
2.29 -16.07 2.5699999
2.23 -16.08 2.5699999
2.1800001 -16.07 2.5699999
2.1300001 -16.059999 2.5599999
2.0599999 -16.07 2.5599999
2.01 -16.059999 2.5599999
1.95 -16.07 2.5599999
1.9 -16.049999 2.5599999
1.83 -16.049999 2.5599999
1.78 -16.059999 2.5599999
1.72 -16.059999 2.5599999
1.67 -16.040001 2.55
1.6 -16.049999 2.55
1.55 -16.040001 2.55
1.49 -16.049999 2.55
1.4400001 -16.049999 2.55
1.38 -16.049999 2.55
1.33 -16.030001 2.54
1.26 -16.02 2.54
1.21 -16.030001 2.54
1.15 -16.030001 2.54
1.1 -16.030001 2.54
1.04 -16.030001 2.54
0.99000001 -16.02 2.54
0.92000002 -16.02 2.54
0.87 -16.02 2.54
0.81 -16.02 2.54
0.75999999 -16 2.54
0.70999998 -16 2.53
0.64999998 -16.01 2.54
0.60000002 -16.02 2.54
0.41999999 -12.41 1.96
0.49000001 -16 2.53
0.41999999 -15.99 2.53
0.38 -15.99 2.53
0.31 -16 2.53
0.25999999 -15.99 2.53
0.2 -15.98 2.53
0.15000001 -15.98 2.53
0.1 -15.99 2.53
0.029999999 -12.32 1.95
0 -15.98 2.53
-0.050000001 -15.99 2.53
-0.1 -15.98 2.53
-0.16 -15.97 2.53
-0.20999999 -15.98 2.53
-0.28 -15.98 2.53
-0.34 -15.97 2.53
-0.38999999 -15.97 2.53
-0.44999999 -15.96 2.53
-0.5 -15.97 2.53
-0.46000001 -13.58 2.1500001
-0.61000001 -15.97 2.53
-0.66000003 -15.95 2.53
-0.72000003 -15.95 2.53
-0.76999998 -15.95 2.53
-0.83999997 -15.97 2.53
-0.63999999 -11.61 1.84
-0.94999999 -15.92 2.52
-0.99000001 -15.93 2.53
-1.0599999 -15.93 2.53
-1.11 -15.94 2.53
-1.17 -15.93 2.53
-1.28 -15.93 2.53
-1.33 -15.91 2.53
-1.38 -15.93 2.53
-1.4400001 -15.9 2.53
-1.49 -15.9 2.53
-1.55 -15.91 2.53
-1.6 -15.91 2.53
-1.67 -15.91 2.53
-1.71 -15.9 2.53
-1.78 -15.89 2.53
-1.83 -15.9 2.53
-1.89 -15.91 2.53
-1.9400001 -15.9 2.53
-2 -15.9 2.54
-2.05 -15.88 2.53
-2.1199999 -15.89 2.54
-2.1600001 -15.88 2.54
-2.21 -15.88 2.54
-1.23 -8.6099997 1.38
-2.3199999 -15.87 2.54
-1.28 -8.5500002 1.37
-2.4400001 -15.88 2.54
-2.51 -15.89 2.55
-2.55 -15.87 2.54
-2.6099999 -15.85 2.54
-2.6600001 -15.85 2.54
-2.73 -15.86 2.55
-1.4400001 -8.2700005 1.33
-2.8399999 -15.86 2.55
-2.8900001 -15.85 2.55
-2.96 -15.85 2.55
-3 -15.83 2.55
-1.6 -8.3100004 1.34
-2.6300001 -13.34 2.1500001
-3.1900001 -15.84 2.5599999
-3.24 -15.85 2.5599999
-3.3 -15.84 2.5599999
-3.3499999 -15.85 2.5599999
-3.4200001 -15.83 2.5599999
-3.46 -15.83 2.5599999
-3.53 -15.82 2.5699999
-3.5799999 -15.82 2.5699999
-3.6300001 -15.83 2.5699999
-3.6900001 -15.82 2.5699999
-3.76 -15.81 2.5699999
-3.8099999 -15.81 2.5699999
-3.8599999 -15.81 2.5799999
-3.9300001 -15.81 2.5799999
-3.98 -15.81 2.5799999
-4.04 -15.8 2.5799999
-4.0900002 -15.8 2.5799999
-4.1599998 -15.8 2.5899999
-4.21 -15.81 2.5899999
-4.2800002 -15.79 2.5899999
-4.3299999 -15.79 2.5899999
-4.4000001 -15.79 2.5899999
-4.4499998 -15.79 2.5999999
-4.5100002 -15.78 2.5999999
-4.5599999 -15.77 2.5999999
-4.6300001 -15.77 2.5999999
-4.6799998 -15.76 2.5999999
-4.7399998 -15.79 2.6099999
-4.8000002 -15.76 2.6099999
-4.8499999 -15.76 2.6099999
-4.9200001 -15.75 2.6099999
-4.9699998 -15.76 2.6199999
-5.04 -15.75 2.6199999
-5.0900002 -15.76 2.6199999
-5.1599998 -15.75 2.6199999
-5.21 -15.74 2.6199999
-3.8499999 -11.48 1.92
-3.8599999 -11.4 1.9
-3.8900001 -11.34 1.9
-3.9200001 -11.3 1.89
-3.9400001 -11.27 1.89
-3.99 -11.27 1.89
-4.0300002 -11.22 1.89
-4.0700002 -11.23 1.89
-4.1199999 -11.27 1.9
-4.1700001 -11.28 1.9
-4.23 -11.33 1.91
-5.9400001 -15.7 2.6600001
-6 -15.72 2.6600001
-6.0700002 -15.71 2.6600001
-6.1199999 -15.71 2.6700001
-6.1799998 -15.67 2.6700001
-6.2399998 -15.69 2.6700001
-3.6300001 -9.0299997 1.54
-3.6700001 -9.04 1.54
-3.6900001 -8.9799995 1.54
-3.72 -8.9799995 1.54
-3.76 -8.9700003 1.54
-3.8 -9.0100002 1.55
-4.8699999 -11.41 1.96
-4.9000001 -11.38 1.96
-3.96 -9.0900002 1.5700001
-3.98 -9.0799999 1.5700001
-4.02 -9.0900002 1.5700001
-5.0599999 -11.31 1.96
-4.1399999 -9.1800003 1.59
-4.1799998 -9.1800003 1.6
-5.4699998 -11.9 2.0699999
-5.52 -11.89 2.0699999
-5.9699998 -12.76 2.23
-6.0300002 -12.75 2.23
-6.0999999 -12.76 2.24
-6.1599998 -12.79 2.25
-6.2199998 -12.82 2.25
-6.29 -12.84 2.26
-6.3499999 -12.85 2.27
-6.4299998 -12.89 2.28
-4.7199998 -9.3999996 1.66
-4.5599999 -8.9899998 1.59
-4.6799998 -9.1599998 1.63
-6.04 -11.7 2.0799999
-6.0799999 -11.68 2.0799999
-6.1100001 -11.64 2.0799999
-6.1599998 -11.65 2.0899999
-6.2199998 -11.66 2.0899999
-6.27 -11.65 2.0899999
-6.3200002 -11.67 2.0999999
-6.3899999 -11.67 2.1099999
-6.4400001 -11.68 2.1099999
-6.4899998 -11.66 2.1099999
-6.54 -11.67 2.1199999
-6.5999999 -11.66 2.1199999
-6.6500001 -11.67 2.1199999
-6.71 -11.66 2.1300001
-6.7399998 -11.64 2.1300001
-6.79 -11.64 2.1300001
-8.9700003 -15.25 2.8
-9.0200005 -15.18 2.8
-8.2200003 -13.75 2.54
-9.1000004 -15.08 2.79
-7.1399999 -11.75 2.1800001
-9.1700001 -14.99 2.78
-8.5100002 -13.79 2.5699999
-8.5 -13.68 2.55
-9.5100002 -15.17 2.8299999
-9.6999998 -15.37 2.8800001
-9.54 -14.98 2.8099999
-7.9099998 -12.34 2.3199999
-9.6499996 -14.93 2.8099999
-9.6700001 -14.86 2.8099999
-9.6599998 -14.72 2.79
-8.4200001 -12.74 2.4200001
-5.27 -7.9099998 1.5
-5.29 -7.8899999 1.5
-5.4499998 -8.0500002 1.54
-5.48 -8.0500002 1.54
-5.5100002 -8.04 1.54
-5.5500002 -8.0299997 1.54
-8.0799999 -11.61 2.24
-8.1400003 -11.59 2.24
-8.1899996 -11.6 2.25
-10.07 -14.14 2.75
-10.09 -14.08 2.74
-10.2 -14.1 2.75
-9.5200005 -12.98 2.55
-10.31 -13.96 2.75
-9.3599997 -12.57 2.48
-9.3800001 -12.52 2.48
-9.4399996 -12.49 2.48
-9.6800003 -12.73 2.53
-10.45 -13.63 2.72
-8.5799999 -11.12 2.22
-10.77 -13.85 2.78
-10.24 -13.09 2.6300001
-9.6000004 -12.17 2.45
-8.7600002 -11.04 2.23
-8.46 -10.57 2.1400001
-7 -8.6899996 1.77
-7.0799999 -8.7200003 1.78
-7.1599998 -8.7700005 1.79
-7.2199998 -8.7700005 1.8
-7.21 -8.6999998 1.79
-7.0700002 -8.46 1.74
-7.0500002 -8.3800001 1.73
-7.0799999 -8.3599997 1.73
-7.1100001 -8.3400002 1.73
-7.1799998 -8.3699999 1.74
-7.2800002 -8.4200001 1.76
-7.3099999 -8.3999996 1.76
-7.3499999 -8.3800001 1.76
-7.4299998 -8.4200001 1.78
-7.5100002 -8.4399996 1.79
-7.54 -8.4200001 1.79
-7.5700002 -8.3900003 1.79
-7.5900002 -8.3599997 1.79
-7.6399999 -8.3500004 1.79
-7.6700001 -8.3299999 1.79
-7.6999998 -8.3000002 1.79
-7.73 -8.2799997 1.79
-7.6500001 -8.1300001 1.77
-7.6399999 -8.0699997 1.76
-7.6900001 -8.0500002 1.76
-7.6900001 -8 1.76
-7.6599998 -7.9299998 1.74
-7.6999998 -7.9099998 1.75
-7.73 -7.8699999 1.75
-7.8099999 -7.9099998 1.76
-7.9000001 -7.9499998 1.77
-7.9000001 -7.8800001 1.77
-7.8000002 -7.7399998 1.74
-7.77 -7.6500001 1.72
-7.7800002 -7.6100001 1.72
-7.8099999 -7.5900002 1.72
-7.8400002 -7.5700002 1.72
-7.8600001 -7.5300002 1.72
-7.9000001 -7.52 1.73
-7.9299998 -7.4899998 1.73
-7.9499998 -7.46 1.73
-7.9699998 -7.4099998 1.72
-8 -7.4000001 1.72
-8.0600004 -7.3899999 1.73
-7.96 -7.2600002 1.7
-7.9000001 -7.1599998 1.6900001
-7.9200001 -7.1199999 1.6799999
-7.9200001 -7.0799999 1.6799999
-7.9000001 -7 1.67
-7.8600001 -6.9200001 1.66
-7.8800001 -6.8899999 1.66
-7.8800001 -6.8400002 1.65
-7.8899999 -6.8000002 1.65
-7.9099998 -6.7800002 1.65
-7.9899998 -6.79 1.66
-8.0299997 -6.7800002 1.66
-8.0799999 -6.77 1.67
-8.0200005 -6.6799998 1.65
-8.0299997 -6.6300001 1.65
-7.9699998 -6.54 1.63
-7.9099998 -6.4400001 1.61
-7.9499998 -6.4299998 1.62
-7.9200001 -6.3699999 1.61
-7.98 -6.3699999 1.62
-8 -6.3400002 1.61
-8.4899998 -6.6700001 1.71
-8.6599998 -6.77 1.74
-25.1 -19.459999 5.0300002
-8.25 -6.3600001 1.65
-8.2700005 -6.3200002 1.65
-8.2799997 -6.29 1.65
-8.8500004 -6.6599998 1.75
-8.8000002 -6.5900002 1.74
-8.8999996 -6.5999999 1.75
-8.8900003 -6.5599999 1.75
-8.9300003 -6.5300002 1.75
-8.9700003 -6.52 1.75
-9 -6.48 1.76
-25.040001 -17.93 4.8800001
-25.040001 -17.780001 4.8600001
-25.040001 -17.67 4.8499999
-25.02 -17.540001 4.8400002
-25.01 -17.379999 4.8200002
-24.98 -17.26 4.8099999
-24.99 -17.110001 4.8000002
-25 -17.01 4.79
-25 -16.860001 4.77
-24.959999 -16.73 4.7600002
-24.98 -16.6 4.75
-24.98 -16.49 4.7399998
-24.98 -16.35 4.73
-24.969999 -16.24 4.7199998
-24.959999 -16.08 4.6999998
-24.950001 -15.97 4.6900001
-24.969999 -15.85 4.6799998
-24.959999 -15.73 4.6700001
-24.98 -15.6 4.6599998
-2.0599999 -1.27 0.38
-2.0799999 -1.27 0.38
-24.940001 -15.24 4.6300001
-24.959999 -15.11 4.6199999
-24.92 -14.99 4.5999999
-24.92 -14.88 4.5999999
-25.030001 -14.82 4.6100001
-25.219999 -14.82 4.6300001
-25.43 -14.81 4.6599998
-25.57 -14.79 4.6799998
-25.77 -14.77 4.6999998
-25.959999 -14.77 4.73
-26.18 -14.76 4.7600002
-26.389999 -14.77 4.79
-26.559999 -14.77 4.8099999
-26.76 -14.74 4.8400002
-26.969999 -14.71 4.8600001
-27.16 -14.71 4.8899999
-27.370001 -14.68 4.9200001
-27.559999 -14.68 4.9400001
-27.790001 -14.69 4.98
-28 -14.66 5
-28.219999 -14.67 5.04
-28.450001 -14.64 5.0700002
-28.66 -14.65 5.0999999
-28.889999 -14.61 5.1300001
-29.1 -14.61 5.1599998
-29.33 -14.58 5.1900001
-29.57 -14.59 5.2199998
-29.799999 -14.56 5.25
-30.049999 -14.57 5.29
-30.290001 -14.53 5.3200002
-30.5 -14.52 5.3499999
-30.540001 -14.39 5.3499999
-31.030001 -14.51 5.4200001
-31.27 -14.51 5.46
-31.540001 -14.48 5.4899998
-31.83 -14.46 5.5300002
-32.040001 -14.44 5.5599999
-32.290001 -14.44 5.5999999
-32.400002 -14.33 5.6100001
-32.630001 -14.28 5.6399999
-33.549999 -14.56 5.79
-33.849998 -14.53 5.8299999
-34.110001 -14.52 5.8699999
-34.380001 -14.51 5.9099998
-34.43 -14.37 5.9099998
-34.48 -14.27 5.9099998
-34.610001 -14.16 5.9200001
-35.630001 -14.45 6.0900002
-35.950001 -14.42 6.1300001
-36.290001 -14.42 6.1799998
-36.549999 -14.36 6.2199998
-36.560001 -14.24 6.21
-36.669998 -14.11 6.2199998
-36.84 -14.05 6.2399998
-37.93 -14.29 6.4200001
-38.32 -14.31 6.48
-38.650002 -14.3 6.5300002
-38.68 -14.14 6.52
-38.75 -14.03 6.5300002
-38.990002 -13.94 6.5599999
-40.18 -14.23 6.75
-40.59 -14.19 6.8099999
-40.810001 -14.13 6.8400002
-40.830002 -13.96 6.8299999
-40.959999 -13.86 6.8499999
-42.150002 -14.08 7.04
-42.59 -14.08 7.0999999
-42.959999 -14.02 7.1599998
-42.98 -13.88 7.1500001
-43.09 -13.77 7.1599998
-44.380001 -13.99 7.3699999
-44.849998 -13.99 7.4400001
-45.09 -13.87 7.4699998
-45.110001 -13.73 7.4699998
-45.330002 -13.59 7.4899998
-46.849998 -13.9 7.7399998
-47.189999 -13.79 7.7800002
-47.220001 -13.65 7.7800002
-47.43 -13.5 7.8099999
-49.57 -13.37 8.1300001
-22.549999 -5.5700002 3.6800001
-22.58 -5.5 3.6800001
-56.110001 -12.04 9.0900002
-39.700001 -8.3900003 6.4200001
-39.669998 -8.2200003 6.4200001
-39.869999 -8.1400003 6.4400001
-41.98 -8.2600002 6.77
-20.959999 -4.0300002 3.3800001
-20.940001 -3.96 3.3699999
-20.98 -3.8800001 3.3800001
-21.129999 -3.8499999 3.4000001
-40.200001 -7.04 6.46
-56.240002 -9.2700005 9.0200005
-41.290001 -6.5100002 6.6199999
-41.200001 -6.0300002 6.5900002
-40.34 -5.4899998 6.4499998
-40.560001 -5.3600001 6.48
-40.669998 -5.25 6.4899998
-55.889999 -3.6600001 8.8699999
-54.560001 -3.1900001 8.6499996
-20.93 -0.86000001 3.3199999
-20.93 -0.76999998 3.3099999
-56.48 28.16 9.9899998
-2.7 1.41 0.47999999
-56.400002 29.83 10.1
-56.369999 30.1 10.12
-11.41 6.71 2.0899999
-47.619999 30.959999 8.9899998
-47.43 34.040001 9.2399998
-47.119999 39.889999 9.7700005
-47.150002 40.16 9.8100004
-47.139999 40.470001 9.8400002
-46.900002 46.259998 10.43
-46.669998 50.07 10.84
-15.98 19.049999 3.9400001
-15.94 19.120001 3.9400001
-16.42 19.969999 4.0900002
-15.57 19.09 3.9000001
-15.46 19.07 3.8900001
-15.38 19.139999 3.8900001
-15.49 19.389999 3.9300001
-15.3 19.309999 3.9000001
-16.75 21.27 4.29
-15.47 19.799999 3.98
-15.53 20.01 4.0100002
-16.379999 21.280001 4.25
-16.27 21.26 4.2399998
-16.120001 21.25 4.2199998
-16.02 21.25 4.21
-15.65 20.889999 4.1300001
-14.97 20.139999 3.97
-15.4 20.85 4.0999999
-14.64 19.99 3.9200001
-15.41 21.17 4.1399999
-14.57 20.190001 3.9400001
-15.07 21.200001 4.1199999
-14.94 21.15 4.0999999
-14.82 21.16 4.0900002
-14.73 21.17 4.0799999
-14.63 21.200001 4.0799999
-14.51 21.17 4.0599999
-14.37 21.129999 4.04
-14.28 21.139999 4.04
-14.16 21.15 4.0300002
-14.06 21.139999 4.02
-13.92 21.110001 4
-13.86 21.16 4
-13.76 21.139999 3.99
-13.61 21.1 3.97
-13.5 21.110001 3.97
-13.39 21.07 3.95
-13.3 21.120001 3.95
-13.21 21.120001 3.9400001
-13.11 21.1 3.9300001
-12.78 20.75 3.8599999
-12.68 20.73 3.8399999
-12.56 20.719999 3.8299999
-12.46 20.690001 3.8199999
-12.47 20.9 3.8499999
-12.48 21.07 3.8800001
-12.53 21.34 3.9200001
-12.58 21.58 3.95
-12.51 21.65 3.96
-12.43 21.66 3.95
-12.36 21.690001 3.95
-12.25 21.700001 3.9400001
-12.16 21.68 3.9300001
-12.04 21.67 3.9200001
-11.96 21.68 3.9200001
-11.85 21.690001 3.9100001
-11.71 21.639999 3.8900001
-11.6 21.6 3.8800001
-11.5 21.620001 3.8800001
-11.41 21.59 3.8599999
-11.36 21.66 3.8699999
-11.24 21.65 3.8599999
-11.15 21.629999 3.8499999
-11.05 21.65 3.8499999
-10.96 21.639999 3.8399999
-10.86 21.65 3.8299999
-10.77 21.629999 3.8199999
-10.66 21.620001 3.8099999
-10.57 21.6 3.8099999
-10.46 21.610001 3.8
-10.37 21.59 3.79
-10.25 21.559999 3.78
-10.16 21.52 3.77
-10.06 21.530001 3.76
-10 21.58 3.76
-9.8999996 21.59 3.76
-9.8100004 21.57 3.75
-9.7299995 21.559999 3.74
-9.6300001 21.57 3.74
-7.8400002 17.700001 3.0599999
-9.4499998 21.58 3.73
-9.2600002 21.549999 3.71
-9.1899996 21.559999 3.71
-9.0299997 21.42 3.6800001
-8.8199997 21.110001 3.6199999
-8.7299995 21.129999 3.6199999
-8.6400003 21.1 3.6099999
-8.5500002 21.110001 3.5999999
-8.4799995 21.110001 3.5999999
-7.0599999 17.780001 3.03
-8.6400003 21.959999 3.73
-8.71 22.34 3.8
-8.7700005 22.76 3.8599999
-8.8500004 23.16 3.9200001
-8.9499998 23.700001 4.0100002
-9.04 24.16 4.0799999
-9.1400003 24.73 4.1700001
-9.2299995 25.219999 4.25
-9.3199997 25.780001 4.3400002
-9.4399996 26.34 4.4299998
-9.54 26.99 4.5300002
-9.6199999 27.450001 4.5999999
-9.5100002 27.51 4.6100001
-9.4200001 27.51 4.5999999
-9.3000002 27.51 4.5999999
-9.1999998 27.5 4.5900002
-9.1599998 27.73 4.6199999
-9.1499996 28 4.6599998
-9.1300001 28.309999 4.71
-9.1199999 28.59 4.75
-8.3500004 30.059999 4.9400001
-8.1999998 29.99 4.9200001
