4.201 6.436 -0.838
5.122 7.912 -1.072
3.775 5.941 -0.75
3.805 6.009 -0.76
4.845 7.72 -1.03
4.822 7.737 -1.03
3.609 5.861 -0.729
4.638 7.654 -1.008
4.507 7.463 -0.977
4.759 7.938 -1.049
4.757 7.992 -1.055
4.724 7.994 -1.053
3.646 6.248 -0.777
3.635 6.252 -0.776
3.621 6.273 -0.778
4.599 8.041 -1.05
4.577 8.06 -1.051
4.557 8.083 -1.052
4.528 8.092 -1.052
4.506 8.112 -1.052
3.481 6.325 -0.775
4.44 8.143 -1.052
4.41 8.148 -1.051
4.381 8.157 -1.05
4.358 8.176 -1.051
4.326 8.177 -1.049
3.157 5.998 -0.715
4.289 8.201 -1.049
4.264 8.215 -1.049
4.243 8.239 -1.051
4.212 8.241 -1.049
4.19 8.262 -1.05
4.157 8.262 -1.048
4.131 8.273 -1.048
4.118 8.282 -1.048
4.087 8.284 -1.047
4.062 8.299 -1.047
4.035 8.309 -1.047
4.009 8.322 -1.047
3.98 8.329 -1.046
3.97 8.343 -1.047
3.94 8.346 -1.046
3.914 8.359 -1.046
3.888 8.371 -1.046
3.855 8.37 -1.044
3.828 8.381 -1.044
3.806 8.402 -1.045
3.811 8.447 -1.051
3.784 8.459 -1.051
3.76 8.477 -1.052
3.73 8.481 -1.051
3.705 8.496 -1.051
3.68 8.512 -1.052
3.653 8.523 -1.052
3.624 8.529 -1.051
3.608 8.529 -1.05
3.581 8.541 -1.05
3.559 8.563 -1.052
3.525 8.557 -1.049
3.499 8.568 -1.049
3.342 8.258 -1.002
3.24 8.075 -0.974
3.201 8.013 -0.965
3.157 7.975 -0.958
2.038 5.172 -0.551
2.017 5.165 -0.549
2 5.171 -0.549
1.982 5.172 -0.548
1.966 5.155 -0.545
1.951 5.165 -0.546
1.938 5.178 -0.547
1.911 5.154 -0.543
1.899 5.172 -0.544
1.88 5.17 -0.543
1.858 5.161 -0.541
1.852 5.17 -0.542
1.827 5.149 -0.538
1.815 5.168 -0.54
1.802 5.183 -0.541
1.777 5.162 -0.537
1.759 5.164 -0.537
1.737 5.153 -0.534
1.733 5.167 -0.536
1.716 5.17 -0.536
1.693 5.155 -0.533
1.679 5.168 -0.534
1.658 5.156 -0.532
1.646 5.176 -0.534
1.623 5.159 -0.53
1.619 5.175 -0.532
1.595 5.155 -0.529
1.586 5.183 -0.532
1.562 5.161 -0.528
1.551 5.183 -0.531
1.528 5.165 -0.528
1.509 5.162 -0.526
1.506 5.182 -0.529
1.509 5.255 -0.539
1.506 5.308 -0.545
1.502 5.36 -0.552
1.511 5.46 -0.565
1.507 5.511 -0.572
1.505 5.575 -0.58
1.524 5.681 -0.594
2.154 8.284 -0.955
1.989 7.743 -0.879
1.928 7.603 -0.859
1.897 7.58 -0.855
1.876 7.596 -0.856
1.87 7.624 -0.86
1.845 7.628 -0.859
1.815 7.609 -0.856
1.794 7.626 -0.858
1.735 7.479 -0.836
1.713 7.488 -0.837
1.706 7.571 -0.848
1.66 7.419 -0.826
1.637 7.426 -0.827
1.61 7.41 -0.824
1.578 7.374 -0.818
1.552 7.365 -0.816
1.557 7.512 -0.836
1.536 7.528 -0.837
1.527 7.542 -0.839
1.499 7.528 -0.836
1.47 7.503 -0.832
1.451 7.531 -0.835
1.434 7.573 -0.84
1.397 7.507 -0.831
1.369 7.482 -0.827
1.355 7.476 -0.826
1.332 7.482 -0.826
1.317 7.537 -0.833
1.289 7.514 -0.829
1.264 7.51 -0.828
1.274 7.718 -0.856
1.249 7.722 -0.856
1.265 7.9 -0.88
1.226 7.816 -0.868
1.222 7.953 -0.886
1.541 10.298 -1.205
1.527 10.43 -1.223
1.497 10.449 -1.225
1.467 10.475 -1.227
1.454 10.509 -1.232
1.424 10.533 -1.234
1.391 10.541 -1.235
1.364 10.587 -1.241
1.332 10.609 -1.243
1.302 10.637 -1.246
1.27 10.654 -1.248
1.253 10.656 -1.248
1.224 10.696 -1.253
1.191 10.709 -1.254
1.158 10.713 -1.254
1.126 10.734 -1.257
1.097 10.791 -1.264
1.079 10.777 -1.262
1.048 10.81 -1.266
1.018 10.857 -1.272
0.983 10.856 -1.271
0.95 10.871 -1.273
0.919 10.903 -1.277
0.886 10.934 -1.28
0.87 10.939 -1.281
0.835 10.942 -1.281
0.803 10.97 -1.284
0.768 10.963 -1.283
0.734 10.979 -1.285
0.702 11.019 -1.29
0.667 11.019 -1.29
0.633 11.033 -1.291
0.618 11.067 -1.296
0.582 11.051 -1.293
0.549 11.097 -1.299
0.514 11.097 -1.299
0.479 11.096 -1.299
0.445 11.103 -1.3
0.411 11.125 -1.302
0.393 11.129 -1.303
0.359 11.152 -1.306
0.224 7.408 -0.801
0.201 7.427 -0.803
0.178 7.449 -0.806
0.155 7.448 -0.806
0.143 7.446 -0.805
0.119 7.433 -0.804
0.096 7.427 -0.803
0.073 7.427 -0.803
0.049 7.435 -0.804
0.026 7.422 -0.802
0.003 7.432 -0.803
-0.009 7.42 -0.802
-0.032 7.416 -0.801
-0.056 7.431 -0.803
-0.047 5.16 -0.497
-0.063 5.17 -0.498
-0.079 5.15 -0.496
-0.095 5.147 -0.495
-0.103 5.149 -0.496
-0.121 5.202 -0.503
-0.208 7.433 -0.804
-0.231 7.43 -0.804
-0.254 7.433 -0.804
-0.278 7.428 -0.804
-0.301 7.426 -0.803
-0.324 7.431 -0.804
-0.337 7.444 -0.806
-0.359 7.425 -0.804
-0.385 7.465 -0.809
-0.406 7.427 -0.804
-0.531 8.632 -0.967
-0.5 7.594 -0.827
-0.53 7.679 -0.839
-0.551 7.644 -0.835
-0.564 7.496 -0.815
-0.588 7.498 -0.815
-0.601 7.372 -0.799
-0.611 7.359 -0.797
-0.633 7.345 -0.795
-0.655 7.325 -0.793
-1.067 11.37 -1.341
-1.101 11.35 -1.339
-1.141 11.386 -1.344
-1.175 11.369 -1.342
-1.191 11.355 -1.341
-1.228 11.359 -1.342
-1.263 11.346 -1.34
-1.301 11.363 -1.343
-1.335 11.349 -1.342
-1.371 11.347 -1.342
-1.407 11.341 -1.342
-1.443 11.344 -1.343
-1.463 11.354 -1.345
-1.496 11.333 -1.343
-1.533 11.334 -1.343
-1.566 11.316 -1.342
-1.605 11.332 -1.344
-1.639 11.317 -1.343
-1.659 11.33 -1.345
-1.694 11.319 -1.344
-1.727 11.296 -1.342
-1.762 11.291 -1.342
-1.8 11.303 -1.344
-1.838 11.313 -1.347
-1.875 11.313 -1.347
-1.892 11.306 -1.347
-1.928 11.302 -1.347
-1.962 11.29 -1.346
-1.995 11.266 -1.344
-2.038 11.301 -1.35
-2.07 11.277 -1.347
-2.108 11.286 -1.349
-2.122 11.261 -1.346
-2.165 11.295 -1.352
-2.196 11.265 -1.349
-2.232 11.262 -1.349
-2.274 11.288 -1.354
-2.3 11.236 -1.348
-2.34 11.25 -1.351
-2.364 11.277 -1.355
-2.399 11.264 -1.354
-2.428 11.229 -1.35
-2.465 11.23 -1.351
-2.504 11.237 -1.354
-2.537 11.22 -1.352
-2.575 11.225 -1.354
-2.592 11.219 -1.354
-2.625 11.199 -1.352
-2.666 11.214 -1.355
-2.695 11.183 -1.352
-2.734 11.19 -1.354
-2.768 11.175 -1.354
-2.802 11.164 -1.353
-2.821 11.166 -1.354
-2.853 11.141 -1.352
-2.888 11.132 -1.352
-2.931 11.154 -1.356
-2.964 11.137 -1.355
-2.993 11.107 -1.352
-3.036 11.128 -1.357
-3.049 11.106 -1.354
-3.082 11.09 -1.353
-3.125 11.107 -1.357
-3.152 11.071 -1.353
-3.196 11.095 -1.358
-3.222 11.055 -1.354
-3.256 11.041 -1.353
-3.279 11.055 -1.356
-3.318 11.057 -1.358
-3.355 11.056 -1.359
-3.384 11.025 -1.356
-3.421 11.024 -1.358
-3.464 11.038 -1.361
-3.491 11.004 -1.358
-3.507 10.995 -1.357
-3.553 11.018 -1.362
-3.572 10.959 -1.355
-3.612 10.965 -1.358
-3.649 10.963 -1.359
-3.681 10.944 -1.358
-3.725 10.959 -1.362
-3.741 10.951 -1.362
-3.774 10.933 -1.361
-3.812 10.933 -1.362
-3.855 10.947 -1.366
-3.891 10.938 -1.367
-3.917 10.904 -1.363
-3.952 10.891 -1.363
-3.976 10.904 -1.366
-4.011 10.893 -1.366
-4.039 10.866 -1.364
-4.074 10.855 -1.365
-4.114 10.859 -1.367
-4.136 10.812 -1.362
-4.177 10.818 -1.365
-4.204 10.837 -1.369
-4.236 10.82 -1.368
-4.258 10.775 -1.363
-4.288 10.753 -1.362
-4.334 10.769 -1.366
-4.369 10.759 -1.367
-4.407 10.754 -1.368
-4.421 10.742 -1.367
-4.459 10.737 -1.369
-4.502 10.745 -1.372
-4.535 10.73 -1.372
-4.558 10.691 -1.368
-4.589 10.671 -1.367
-4.633 10.68 -1.371
-4.648 10.667 -1.37
-4.676 10.642 -1.369
-4.708 10.623 -1.368
-4.761 10.563 -1.363
-4.808 10.578 -1.368
-4.835 10.551 -1.366
-4.862 10.565 -1.369
-4.885 10.528 -1.366
-4.927 10.53 -1.369
-4.97 10.536 -1.372
-4.993 10.499 -1.369
-5.027 10.487 -1.369
-5.072 10.496 -1.373
-5.064 10.436 -1.365
-5.111 10.451 -1.37
-5.161 10.468 -1.375
-5.185 10.434 -1.372
-5.226 10.436 -1.375
-5.261 10.423 -1.375
-5.29 10.399 -1.374
-5.308 10.394 -1.375
-5.344 10.383 -1.376
-5.366 10.347 -1.373
-5.397 10.326 -1.372
-5.432 10.315 -1.373
-5.459 10.287 -1.371
-5.507 10.299 -1.376
-5.524 10.293 -1.376
-5.543 10.251 -1.373
-5.607 10.291 -1.381
-5.626 10.249 -1.378
-5.656 10.227 -1.377
-5.698 10.227 -1.38
-5.743 10.233 -1.384
-5.75 10.207 -1.381
-5.785 10.194 -1.382
-5.818 10.177 -1.382
-5.851 10.161 -1.382
-5.888 10.151 -1.384
-5.915 10.126 -1.382
-5.932 10.081 -1.378
-5.972 10.076 -1.381
-5.992 10.074 -1.382
-6.011 10.034 -1.378
-6.054 10.034 -1.381
-6.074 9.996 -1.378
-6.109 9.984 -1.38
-6.145 9.972 -1.381
-6.162 9.964 -1.381
-6.189 9.937 -1.38
-6.227 9.93 -1.382
-6.246 9.89 -1.378
-6.277 9.87 -1.378
-6.299 9.837 -1.376
-6.338 9.829 -1.378
-6.354 9.821 -1.378
-6.378 9.791 -1.377
-6.419 9.786 -1.379
-6.449 9.764 -1.379
-6.467 9.725 -1.376
-6.509 9.721 -1.379
-6.526 9.681 -1.375
-6.54 9.669 -1.375
-6.589 9.677 -1.38
-6.603 9.631 -1.376
-6.644 9.627 -1.378
-6.652 9.573 -1.373
-6.522 9.325 -1.336
-6.306 8.898 -1.272
-6.594 9.272 -1.335
-6.81 9.511 -1.378
-6.846 9.499 -1.38
-6.876 9.477 -1.38
-6.908 9.459 -1.381
-6.951 9.455 -1.384
-6.956 9.431 -1.381
-6.986 9.409 -1.381
-7.035 9.412 -1.386
-7.064 9.39 -1.386
-7.094 9.368 -1.386
-7.135 9.361 -1.388
-7.151 9.322 -1.385
-7.171 9.317 -1.386
-7.212 9.31 -1.389
-7.2 9.234 -1.38
-7.168 9.135 -1.367
-6.925 8.769 -1.308
-6.861 8.633 -1.288
-6.792 8.492 -1.268
-6.755 8.418 -1.257
-6.74 8.346 -1.248
-6.735 8.287 -1.241
-6.751 8.253 -1.239
-6.747 8.197 -1.233
-6.757 8.156 -1.229
-6.767 8.116 -1.226
-6.766 8.063 -1.22
-6.769 8.042 -1.219
-6.78 8.004 -1.216
-6.789 7.963 -1.212
-6.802 7.928 -1.21
-6.818 7.896 -1.208
-6.834 7.865 -1.206
-6.837 7.843 -1.204
-6.864 7.825 -1.205
-6.877 7.79 -1.202
-6.897 7.764 -1.202
-6.929 7.751 -1.203
-6.943 7.717 -1.201
-6.967 7.696 -1.201
-6.977 7.682 -1.2
-7.004 7.663 -1.201
-7.03 7.643 -1.202
-7.058 7.626 -1.202
-7.089 7.611 -1.204
-7.105 7.58 -1.202
-7.135 7.565 -1.203
-7.153 7.559 -1.204
-7.178 7.538 -1.205
-7.219 7.534 -1.208
-7.247 7.516 -1.209
-7.283 7.506 -1.211
-7.316 7.493 -1.213
-7.35 7.479 -1.215
-7.379 7.486 -1.219
-7.417 7.477 -1.221
-7.461 7.475 -1.225
-7.503 7.469 -1.229
-7.579 7.497 -1.239
-7.608 7.479 -1.24
-7.663 7.485 -1.246
-7.71 7.508 -1.252
-7.795 7.543 -1.264
-8.918 8.516 -1.464
-8.955 8.498 -1.466
-9.021 8.506 -1.473
-9.046 8.477 -1.473
-9.069 8.472 -1.475
-9.09 8.438 -1.474
-9.14 8.431 -1.478
-9.162 8.398 -1.477
-9.203 8.383 -1.48
-9.245 8.368 -1.483
-9.267 8.335 -1.482
-9.292 8.331 -1.484
-9.304 8.237 -1.477
-9.412 8.28 -1.491
-9.432 8.245 -1.49
-9.467 8.223 -1.492
-9.491 8.192 -1.492
-9.514 8.186 -1.494
-9.552 8.166 -1.496
-9.576 8.135 -1.495
-9.628 8.127 -1.5
-9.653 8.096 -1.5
-9.669 8.058 -1.498
-9.727 8.054 -1.504
-9.724 8.027 -1.501
-9.754 8 -1.502
-9.799 7.985 -1.506
-9.819 7.951 -1.505
-9.84 7.916 -1.504
-9.883 7.9 -1.507
-9.898 7.862 -1.506
-9.908 7.844 -1.505
-9.953 7.828 -1.509
-9.971 7.792 -1.508
-9.995 7.761 -1.508
-10.032 7.739 -1.51
-10.06 7.71 -1.51
-10.077 7.673 -1.509
-10.085 7.654 -1.508
-10.121 7.632 -1.51
-10.16 7.611 -1.513
-10.185 7.58 -1.513
-10.198 7.54 -1.511
-10.249 7.527 -1.516
-10.264 7.489 -1.514
-10.29 7.484 -1.517
-10.317 7.454 -1.517
-10.352 7.429 -1.519
-10.36 7.386 -1.517
-10.385 7.355 -1.517
-10.434 7.34 -1.521
-10.457 7.308 -1.521
-10.462 7.287 -1.52
-10.488 7.256 -1.521
-10.529 7.235 -1.524
-10.545 7.198 -1.523
-10.599 7.186 -1.528
-10.612 7.146 -1.526
-10.645 7.12 -1.528
-10.695 7.128 -1.534
-10.705 7.087 -1.532
-10.766 7.079 -1.539
-10.773 7.035 -1.536
-10.818 7.016 -1.54
-10.847 6.986 -1.541
-10.894 6.968 -1.545
-10.922 6.962 -1.548
-8.027 5.09 -1.083
-7.978 5.023 -1.072
-11.014 6.875 -1.552
-11.044 6.846 -1.553
-11.104 6.835 -1.559
-11.092 6.779 -1.554
-10.301 6.276 -1.428
-10.339 6.255 -1.431
-10.156 6.101 -1.399
-9.867 5.886 -1.35
-9.73 5.681 -1.32
-9.756 5.676 -1.323
-9.732 5.622 -1.317
-9.746 5.589 -1.316
-9.757 5.555 -1.315
-9.697 5.48 -1.303
-9.729 5.458 -1.305
-9.766 5.438 -1.308
-9.698 5.381 -1.297
-9.706 5.346 -1.295
-9.724 5.316 -1.296
-9.727 5.278 -1.293
-9.724 5.237 -1.291
-9.87 5.275 -1.31
-9.755 5.175 -1.29
-9.728 5.141 -1.285
-9.708 5.091 -1.279
-9.711 5.054 -1.277
-9.713 5.017 -1.275
-9.715 4.979 -1.273
-9.723 4.945 -1.272
-9.73 4.91 -1.271
-9.736 4.894 -1.27
-9.742 4.859 -1.269
-9.756 4.827 -1.269
-9.76 4.791 -1.267
-9.771 4.759 -1.267
-9.779 4.725 -1.266
-9.781 4.707 -1.265
-9.8 4.678 -1.265
-9.829 4.654 -1.268
-9.827 4.615 -1.265
-9.861 4.593 -1.268
-9.888 4.568 -1.27
-9.91 4.54 -1.271
-9.962 4.526 -1.277
-9.998 4.524 -1.281
-10.068 4.517 -1.289
-10.106 4.496 -1.293
-10.138 4.472 -1.295
-10.281 4.496 -1.314
-10.284 4.459 -1.313
-10.297 4.446 -1.313
-10.322 4.418 -1.315
-10.459 4.399 -1.331
-10.819 4.509 -1.382
-12.767 5.269 -1.664
-10.997 4.502 -1.404
-11.087 4.519 -1.416
-12.854 5.187 -1.67
-12.924 5.168 -1.678
-12.968 5.139 -1.682
-12.973 5.093 -1.68
-13.005 5.059 -1.683
-13.045 5.027 -1.686
-13.116 5.031 -1.695
-13.091 4.974 -1.69
-13.121 4.939 -1.692
-13.178 4.913 -1.698
-13.175 4.864 -1.695
-13.216 4.832 -1.699
-13.253 4.799 -1.702
-13.302 4.793 -1.708
-13.321 4.752 -1.708
-13.356 4.718 -1.711
-13.403 4.687 -1.716
-13.427 4.648 -1.717
-13.451 4.609 -1.718
-13.499 4.578 -1.723
-13.517 4.561 -1.725
-13.535 4.519 -1.725
-13.578 4.486 -1.729
-13.605 4.448 -1.731
-13.641 4.412 -1.734
-13.65 4.368 -1.734
-13.693 4.334 -1.738
-13.704 4.314 -1.738
-13.733 4.275 -1.741
-13.784 4.244 -1.746
-13.822 4.208 -1.749
-13.865 4.174 -1.754
-13.897 4.136 -1.756
-13.986 4.114 -1.767
-14.035 4.104 -1.773
-14.051 4.061 -1.773
-14.064 4.017 -1.773
-14.111 3.983 -1.778
-14.133 3.941 -1.78
-14.184 3.907 -1.785
-14.199 3.887 -1.786
-14.236 3.849 -1.79
-14.285 3.814 -1.795
-14.308 3.772 -1.796
-14.372 3.741 -1.804
-14.387 3.697 -1.804
-14.385 3.648 -1.802
-14.416 3.632 -1.806
-14.429 3.587 -1.806
-14.446 3.543 -1.807
-14.482 3.504 -1.81
-14.522 3.465 -1.814
-14.562 3.426 -1.818
-14.604 3.387 -1.823
-14.626 3.344 -1.824
-14.656 3.327 -1.828
-14.694 3.287 -1.831
-14.723 3.245 -1.834
-14.757 3.203 -1.837
-14.757 3.155 -1.836
-14.79 3.114 -1.839
-14.842 3.076 -1.845
-14.888 3.061 -1.851
-14.818 2.998 -1.84
-14.956 2.977 -1.857
-15.039 2.944 -1.867
-14.992 2.886 -1.86
-14.985 2.836 -1.858
-15.017 2.818 -1.861
-14.996 2.765 -1.857
-15.005 2.718 -1.857
-10.717 1.914 -1.269
-10.705 1.877 -1.267
-10.676 1.838 -1.262
-10.703 1.808 -1.265
-10.69 1.788 -1.263
-10.802 1.772 -1.277
-10.805 1.738 -1.277
-10.946 1.725 -1.295
-15.158 2.329 -1.869
-15.197 2.286 -1.873
-15.202 2.238 -1.873
-15.205 2.215 -1.873
-15.246 2.171 -1.878
-15.245 2.122 -1.877
-15.269 2.077 -1.879
-15.289 2.031 -1.881
-15.295 1.983 -1.881
-15.313 1.936 -1.882
-15.332 1.914 -1.885
-15.358 1.868 -1.887
-15.373 1.821 -1.889
-15.412 1.777 -1.893
-15.42 1.728 -1.893
-15.439 1.681 -1.895
-15.494 1.638 -1.902
-15.496 1.614 -1.902
-15.537 1.569 -1.907
-15.747 1.539 -1.935
-15.563 1.423 -1.908
-15.537 1.372 -1.904
-15.548 1.323 -1.905
-15.561 1.3 -1.907
-15.573 1.252 -1.908
-15.569 1.202 -1.907
-15.583 1.154 -1.908
-15.59 1.105 -1.909
-15.604 1.057 -1.91
-15.623 1.009 -1.912
-15.638 0.985 -1.914
-15.641 0.936 -1.914
-15.666 0.888 -1.917
-15.692 0.84 -1.92
-15.691 0.791 -1.92
-15.709 0.742 -1.922
-15.711 0.693 -1.922
-15.74 0.669 -1.925
-15.758 0.62 -1.928
-15.782 0.571 -1.931
-15.817 0.523 -1.935
-15.831 0.474 -1.937
-15.868 0.425 -1.942
-15.895 0.375 -1.945
-15.943 0.351 -1.951
-15.92 0.301 -1.948
-15.907 0.251 -1.946
-16.044 0.202 -1.965
-15.972 0.151 -1.955
-15.952 0.101 -1.952
-15.958 0.051 -1.953
-15.957 0.026 -1.953
-15.964 -0.024 -1.954
-15.95 -0.074 -1.952
-15.964 -0.125 -1.954
-15.977 -0.175 -1.956
-15.973 -0.225 -1.955
-15.99 -0.276 -1.958
-15.993 -0.301 -1.958
-15.994 -0.351 -1.958
-15.997 -0.401 -1.959
-16.01 -0.452 -1.961
-16.032 -0.503 -1.964
-16.038 -0.554 -1.965
-16.04 -0.604 -1.966
-16.051 -0.63 -1.967
-16.065 -0.681 -1.969
-16.081 -0.732 -1.972
-16.074 -0.783 -1.971
-16.086 -0.834 -1.973
-16.099 -0.885 -1.975
-16.108 -0.937 -1.977
-16.136 -0.964 -1.981
-16.143 -1.015 -1.982
-16.167 -1.068 -1.986
-16.185 -1.12 -1.989
-16.206 -1.173 -1.992
-16.222 -1.225 -1.995
-16.437 -1.294 -2.024
-16.206 -1.301 -1.993
-16.239 -1.355 -1.998
-15.915 -1.378 -1.955
-15.922 -1.429 -1.957
-15.93 -1.48 -1.958
-15.921 -1.529 -1.958
-15.902 -1.578 -1.956
-15.896 -1.603 -1.955
-15.895 -1.653 -1.956
-15.878 -1.702 -1.954
-15.858 -1.75 -1.952
-15.843 -1.799 -1.951
-15.843 -1.849 -1.952
-15.859 -1.902 -1.955
-15.834 -1.924 -1.952
-15.858 -1.977 -1.956
-15.883 -2.031 -1.96
-15.894 -2.083 -1.963
-15.925 -2.138 -1.968
-15.953 -2.193 -1.973
-15.946 -2.243 -1.973
-15.925 -2.266 -1.97
-15.914 -2.315 -1.97
-15.899 -2.364 -1.968
-15.877 -2.412 -1.967
-15.852 -2.459 -1.964
-15.842 -2.509 -1.964
-15.834 -2.558 -1.964
-15.838 -2.584 -1.965
-15.869 -2.641 -1.97
-15.863 -2.691 -1.971
-15.87 -2.743 -1.973
-15.846 -2.791 -1.971
-12.369 -2.213 -1.495
-12.292 -2.239 -1.486
-12.331 -2.266 -1.492
-12.191 -2.279 -1.474
-12.188 -2.318 -1.474
-12.099 -2.341 -1.463
-12.033 -2.367 -1.455
-12.067 -2.413 -1.46
-11.935 -2.426 -1.443
-11.913 -2.441 -1.441
-11.884 -2.474 -1.438
-11.892 -2.514 -1.44
-11.859 -2.546 -1.437
-11.899 -2.594 -1.443
-11.893 -2.632 -1.444
-11.877 -2.667 -1.443
-11.867 -2.685 -1.442
-11.793 -2.707 -1.433
-11.792 -2.746 -1.434
-11.851 -2.799 -1.443
-11.821 -2.831 -1.44
-11.816 -2.869 -1.441
-9.589 -2.355 -1.133
-9.539 -2.359 -1.126
-9.472 -2.374 -1.118
-9.673 -2.457 -1.147
-9.278 -2.387 -1.093
-9.209 -2.4 -1.084
-9.261 -2.444 -1.093
-9.364 -2.503 -1.108
-9.005 -2.421 -1.059
-9.045 -2.463 -1.065
-9.068 -2.5 -1.07
-9.233 -2.577 -1.094
-9.4 -2.656 -1.118
-9.405 -2.69 -1.12
-9.228 -2.654 -1.096
-9.324 -2.714 -1.111
-9.333 -2.748 -1.113
-9.25 -2.755 -1.103
-9.319 -2.808 -1.114
-9.341 -2.846 -1.118
-9.135 -2.815 -1.09
-8.791 -2.738 -1.043
-9.395 -2.944 -1.129
-9.263 -2.934 -1.111
-9.164 -2.934 -1.099
-9.222 -2.985 -1.108
-9.147 -2.992 -1.099
-9.109 -3.012 -1.095
-9.116 -3.03 -1.097
-9.254 -3.109 -1.118
-9.021 -3.061 -1.086
-9.205 -3.156 -1.113
-9.305 -3.224 -1.129
-9.187 -3.215 -1.114
-9.005 -3.182 -1.089
-9.287 -3.3 -1.13
-9.534 -3.422 -1.167
-9.611 -3.484 -1.18
-14.592 -5.356 -1.897
-14.579 -5.403 -1.898
-14.616 -5.469 -1.905
-14.74 -5.568 -1.926
-15.231 -5.782 -1.998
-15.259 -5.848 -2.005
-15.218 -5.887 -2.001
-15.187 -5.93 -1.999
-15.172 -5.979 -2
-14.912 -5.93 -1.965
-14.626 -5.87 -1.926
-15.067 -6.075 -1.992
-12.991 -5.282 -1.692
-12.984 -5.326 -1.694
-12.947 -5.359 -1.691
-12.948 -5.407 -1.693
-14.926 -6.292 -1.985
-14.888 -6.331 -1.983
-14.798 -6.32 -1.971
-14.96 -6.446 -1.998
-13.038 -5.662 -1.718
-13.025 -5.706 -1.719
-14.614 -6.46 -1.956
-14.742 -6.572 -1.978
-14.889 -6.694 -2.002
-14.888 -6.722 -2.004
-14.865 -6.768 -2.004
-14.844 -6.815 -2.004
-14.819 -6.859 -2.003
-14.79 -6.903 -2.002
-14.761 -6.946 -2.001
-12.998 -6.163 -1.741
-13.004 -6.191 -1.743
-14.702 -7.06 -2
-14.68 -7.106 -2
-14.65 -7.148 -1.999
-14.646 -7.203 -2.002
-14.625 -7.25 -2.002
-14.606 -7.298 -2.003
-14.59 -7.319 -2.002
-14.557 -7.359 -2.001
-14.558 -7.418 -2.004
-5.736 -2.951 -0.671
-5.723 -2.967 -0.671
-14.457 -7.596 -2.003
-14.449 -7.621 -2.004
-14.426 -7.667 -2.004
-14.404 -7.713 -2.004
-14.383 -7.76 -2.005
-14.364 -7.808 -2.006
-14.308 -7.836 -2.001
-14.294 -7.858 -2.001
-14.281 -7.909 -2.002
-14.26 -7.956 -2.003
-14.217 -7.991 -2
-14.192 -8.036 -2
-14.17 -8.082 -2.001
-14.155 -8.133 -2.002
-14.137 -8.152 -2.002
-14.129 -8.206 -2.004
-14.106 -8.253 -2.005
-14.07 -8.291 -2.003
-14.061 -8.345 -2.006
-14.018 -8.379 -2.003
-14.015 -8.438 -2.007
-13.99 -8.452 -2.005
-13.972 -8.501 -2.006
-13.96 -8.555 -2.009
-13.911 -8.585 -2.005
-13.893 -8.634 -2.007
-13.872 -8.682 -2.008
-13.816 -8.707 -2.003
-13.719 -8.676 -1.99
-13.623 -8.675 -1.979
-13.521 -8.67 -1.967
-13.424 -8.667 -1.956
-13.355 -8.682 -1.949
-13.339 -8.731 -1.951
-13.345 -8.795 -1.956
-13.31 -8.832 -1.955
-13.303 -8.858 -1.956
-13.275 -8.9 -1.956
-13.026 -8.791 -1.92
-12.741 -8.657 -1.878
-12.65 -8.653 -1.868
-12.556 -8.646 -1.857
-12.488 -8.629 -1.848
-12.395 -8.622 -1.837
-12.299 -8.613 -1.826
-12.204 -8.603 -1.815
-12.118 -8.599 -1.805
-12.028 -8.592 -1.794
-11.951 -8.594 -1.786
-11.87 -8.564 -1.775
-11.784 -8.558 -1.765
-11.693 -8.548 -1.754
-11.616 -8.548 -1.746
-11.532 -8.542 -1.736
-11.448 -8.535 -1.727
-9.112 -6.831 -1.337
-9.077 -6.827 -1.333
-9.04 -6.844 -1.33
-9.006 -6.863 -1.328
-9.009 -6.91 -1.332
-9.155 -7.069 -1.361
-9.189 -7.141 -1.37
-10.857 -8.471 -1.658
-10.782 -8.467 -1.65
-10.71 -8.465 -1.642
-10.64 -8.464 -1.634
-10.575 -8.466 -1.628
-10.5 -8.461 -1.619
-10.428 -8.456 -1.611
-10.365 -8.432 -1.603
-10.296 -8.43 -1.595
-10.227 -8.427 -1.588
-10.151 -8.418 -1.579
-10.128 -8.452 -1.58
-10.1 -8.483 -1.58
-9.99 -8.444 -1.565
-9.914 -8.433 -1.556
-9.824 -8.383 -1.543
-9.712 -8.34 -1.527
-9.64 -8.331 -1.519
-9.58 -8.332 -1.513
-9.508 -8.321 -1.505
-9.452 -8.325 -1.499
-9.406 -8.311 -1.494
-9.343 -8.307 -1.487
-9.28 -8.303 -1.48
-9.215 -8.298 -1.473
-9.148 -8.289 -1.466
-9.09 -8.289 -1.46
-9.02 -8.277 -1.452
-9.003 -8.287 -1.451
-8.936 -8.277 -1.444
-8.88 -8.277 -1.438
-8.919 -8.366 -1.45
-8.911 -8.412 -1.454
-8.892 -8.446 -1.455
-8.755 -8.369 -1.434
-8.896 -8.531 -1.463
-8.908 -8.596 -1.47
-8.889 -8.632 -1.472
-8.875 -8.673 -1.474
-8.874 -8.727 -1.479
-8.848 -8.756 -1.48
-8.857 -8.82 -1.487
-8.867 -8.858 -1.491
-8.866 -8.913 -1.496
-8.86 -8.963 -1.501
-8.852 -9.012 -1.505
-8.841 -9.057 -1.508
-8.853 -9.127 -1.516
-8.834 -9.165 -1.518
-2.75 -2.854 -0.336
-8.795 -9.153 -1.513
-8.731 -9.201 -1.512
-8.774 -9.305 -1.526
-2.503 -2.662 -0.294
-8.766 -9.356 -1.53
-2.596 -2.779 -0.314
-2.424 -2.617 -0.282
-8.004 -8.676 -1.393
-2.413 -2.621 -0.282
-2.412 -2.638 -0.283
-2.411 -2.653 -0.285
-2.391 -2.647 -0.282
-7.729 -8.7 -1.37
-7.573 -8.55 -1.341
-7.546 -8.574 -1.341
-7.516 -8.595 -1.341
-7.507 -8.639 -1.344
-7.453 -8.631 -1.339
-7.228 -8.423 -1.298
-6.921 -8.09 -1.237
-7.023 -8.261 -1.263
-2.412 -2.847 -0.304
-6.859 -8.119 -1.234
-2.394 -2.844 -0.303
-2.394 -2.862 -0.304
-2.298 -2.764 -0.286
-2.22 -2.677 -0.27
-2.235 -2.713 -0.275
-2.256 -2.757 -0.282
-2.182 -2.682 -0.268
-2.272 -2.813 -0.289
-7.674 -9.756 -1.475
-6.666 -8.524 -1.26
-6.626 -8.528 -1.257
-6.597 -8.545 -1.257
-6.577 -8.575 -1.258
-6.553 -8.599 -1.259
-7.638 -10.097 -1.508
-7.644 -10.137 -1.513
-8.461 -11.3 -1.705
-7.684 -10.325 -1.537
-7.594 -10.271 -1.524
-6.182 -8.409 -1.208
-6.154 -8.426 -1.208
-6.133 -8.454 -1.21
-6.118 -8.46 -1.209
-6.041 -8.408 -1.197
-6 -8.408 -1.194
-6 -8.464 -1.2
-5.962 -8.467 -1.198
-8.1 -11.596 -1.708
-8.066 -11.625 -1.709
-5.91 -8.534 -1.201
-5.854 -8.51 -1.194
-5.798 -8.486 -1.187
-5.753 -8.476 -1.183
-5.713 -8.475 -1.179
-5.666 -8.461 -1.174
-5.627 -8.461 -1.171
-5.699 -8.599 -1.192
-5.278 -8.015 -1.095
-5.472 -8.368 -1.149
-5.492 -8.457 -1.161
-5.457 -8.463 -1.159
-5.386 -8.41 -1.148
-5.351 -8.383 -1.142
-5.277 -8.324 -1.13
-5.222 -8.295 -1.123
-5.208 -8.33 -1.126
-4.914 -7.913 -1.057
-4.887 -7.925 -1.057
-4.866 -7.947 -1.058
-4.87 -7.982 -1.062
-4.871 -8.157 -1.082
-4.818 -8.124 -1.075
-4.741 -8.052 -1.061
-4.618 -7.899 -1.035
-4.592 -7.882 -1.031
-4.564 -7.892 -1.03
-4.542 -7.911 -1.031
-4.59 -8.053 -1.051
-4.525 -7.998 -1.04
-4.473 -7.964 -1.033
-4.598 -8.248 -1.075
-7.421 -13.396 -1.866
-7.371 -13.404 -1.864
-7.334 -13.437 -1.865
-4.804 -8.848 -1.159
-4.763 -8.839 -1.155
-4.752 -8.885 -1.16
-7.815 -14.817 -2.06
-7.196 -13.745 -1.893
-7.164 -13.788 -1.896
-4.454 -8.618 -1.109
-4.426 -8.628 -1.109
-7.144 -14.073 -1.929
-7.139 -14.118 -1.934
-7.103 -14.158 -1.937
-5.036 -10.101 -1.323
-4.981 -10.069 -1.316
-4.947 -10.079 -1.315
-4.978 -10.225 -1.335
-5.137 -10.639 -1.394
-5.024 -10.445 -1.364
-5.005 -10.489 -1.368
-4.674 -9.872 -1.274
-4.644 -9.89 -1.274
-4.639 -9.96 -1.283
-4.695 -10.164 -1.311
-4.795 -10.469 -1.354
-4.914 -10.776 -1.398
-4.87 -10.859 -1.406
-4.793 -10.87 -1.403
-4.766 -10.901 -1.405
-4.714 -10.876 -1.4
-4.578 -10.606 -1.359
-4.567 -10.672 -1.366
-4.542 -10.706 -1.369
-4.496 -10.691 -1.365
-4.458 -10.694 -1.363
-4.418 -10.694 -1.361
-4.376 -10.685 -1.358
-4.351 -10.672 -1.355
-4.307 -10.662 -1.352
-4.269 -10.664 -1.35
-4.219 -10.635 -1.344
-3.063 -7.772 -0.928
-3.026 -7.75 -0.923
-2.998 -7.75 -0.922
-2.968 -7.707 -0.915
-2.958 -7.755 -0.92
-2.96 -7.835 -0.931
-2.966 -7.926 -0.942
-2.937 -7.924 -0.941
-2.874 -7.829 -0.926
-2.858 -7.822 -0.924
-2.827 -7.814 -0.922
-2.8 -7.815 -0.921
-2.773 -7.819 -0.92
-2.741 -7.805 -0.917
-2.713 -7.804 -0.915
-2.687 -7.807 -0.915
-2.671 -7.802 -0.913
-2.64 -7.789 -0.91
-2.613 -7.792 -0.909
-2.585 -7.787 -0.908
-2.556 -7.782 -0.906
-2.532 -7.792 -0.906
-2.501 -7.781 -0.903
-2.484 -7.77 -0.901
-2.457 -7.768 -0.9
-2.416 -7.721 -0.892
-2.376 -7.679 -0.885
-2.353 -7.688 -0.885
-2.404 -7.948 -0.921
-3.526 -11.905 -1.475
-3.485 -11.901 -1.473
-3.443 -11.897 -1.471
-3.403 -11.9 -1.47
-3.362 -11.895 -1.468
-3.324 -11.904 -1.468
-3.281 -11.897 -1.465
-3.258 -11.885 -1.463
-3.221 -11.895 -1.463
-3.186 -11.915 -1.464
-2.061 -8.081 -0.926
-2.049 -8.088 -0.926
-2.034 -8.135 -0.932
-2.01 -8.147 -0.933
-1.989 -8.174 -0.936
-2.842 -11.891 -1.45
-2.799 -11.875 -1.446
-2.734 -11.764 -1.43
-2.692 -11.668 -1.416
-2.64 -11.607 -1.406
-2.575 -11.487 -1.389
-2.54 -11.499 -1.389
-2.573 -11.829 -1.433
-1.79 -8.318 -0.948
-1.774 -8.305 -0.946
-1.605 -8.274 -0.938
-1.592 -8.277 -0.938
-1.534 -8.256 -0.933
-1.506 -8.247 -0.932
-3.418 -19.253 -2.438
-1.454 -8.254 -0.931
-2.124 -12.364 -1.493
-1.916 -11.696 -1.399
-1.911 -11.901 -1.427
-1.853 -11.77 -1.408
-1.275 -8.219 -0.923
-1.248 -8.214 -0.921
-1.687 -11.288 -1.34
-1.207 -8.202 -0.919
-1.144 -7.94 -0.883
-1.12 -7.958 -0.885
-1.069 -7.951 -0.883
-1.46 -11.35 -1.344
-1.428 -11.384 -1.348
-1.463 -11.981 -1.429
-1.416 -11.903 -1.417
-0.907 -7.755 -0.854
-0.882 -7.75 -0.853
-1.306 -11.766 -1.397
-1.23 -11.401 -1.347
-0.822 -7.767 -0.854
-1.207 -11.9 -1.414
-1.179 -12 -1.427
-1.145 -12.035 -1.431
-1.107 -12.045 -1.432
-1.03 -11.387 -1.343
-0.618 -7.521 -0.819
-0.596 -7.539 -0.821
-0.571 -7.525 -0.819
-0.547 -7.533 -0.82
-0.536 -7.534 -0.82
-0.511 -7.515 -0.817
-0.487 -7.523 -0.818
-0.463 -7.519 -0.817
-0.44 -7.516 -0.816
-0.415 -7.503 -0.815
-0.392 -7.519 -0.816
-0.38 -7.497 -0.813
-0.356 -7.497 -0.813
-0.333 -7.519 -0.816
-0.308 -7.491 -0.812
-0.285 -7.498 -0.813
-0.262 -7.497 -0.813
-0.238 -7.489 -0.812
-0.226 -7.48 -0.81
-0.203 -7.512 -0.815
-0.179 -7.475 -0.809
-0.155 -7.497 -0.812
-0.132 -7.484 -0.811
-0.108 -7.482 -0.81
-0.096 -7.473 -0.809
-0.073 -7.503 -0.813
-0.049 -7.465 -0.808
-0.026 -7.483 -0.81
-0.002 -7.465 -0.808
0.021 -7.471 -0.809
0.044 -7.453 -0.806
0.056 -7.475 -0.809
0.079 -7.451 -0.806
0.103 -7.467 -0.808
0.126 -7.456 -0.807
0.15 -7.458 -0.807
0.173 -7.451 -0.806
0.197 -7.461 -0.808
0.208 -7.439 -0.805
0.232 -7.448 -0.806
0.255 -7.439 -0.805
0.278 -7.444 -0.806
0.301 -7.426 -0.803
0.325 -7.44 -0.805
0.347 -7.424 -0.803
0.36 -7.435 -0.805
0.382 -7.422 -0.803
0.406 -7.417 -0.803
0.428 -7.394 -0.8
0.447 -7.335 -0.792
0.473 -7.383 -0.799
0.94 -13.953 -1.687
0.983 -13.942 -1.686
1.028 -13.947 -1.687
1.07 -13.926 -1.684
1.115 -13.94 -1.687
1.158 -13.924 -1.685
1.201 -13.915 -1.684
1.243 -13.887 -1.681
1.263 -13.87 -1.679
1.306 -13.862 -1.679
1.349 -13.849 -1.677
1.392 -13.841 -1.677
1.435 -13.831 -1.676
1.479 -13.83 -1.677
1.499 -13.81 -1.674
1.542 -13.807 -1.675
1.586 -13.808 -1.675
1.629 -13.801 -1.675
1.673 -13.796 -1.675
1.715 -13.783 -1.674
1.758 -13.772 -1.673
1.78 -13.773 -1.674
1.862 -14.054 -1.713
1.571 -11.617 -1.382
1.6 -11.557 -1.374
1.627 -11.487 -1.366
1.663 -11.48 -1.365
1.696 -11.453 -1.362
1.697 -11.339 -1.347
1.734 -11.343 -1.349
1.747 -11.193 -1.329
1.798 -11.289 -1.343
1.824 -11.225 -1.335
1.859 -11.217 -1.334
1.892 -11.199 -1.333
1.926 -11.292 -1.346
1.952 -11.233 -1.339
1.979 -11.178 -1.332
2.027 -11.244 -1.342
2.064 -11.248 -1.343
2.099 -11.235 -1.342
2.121 -11.255 -1.346
2.157 -11.254 -1.346
2.196 -11.263 -1.349
2.235 -11.276 -1.351
2.267 -11.251 -1.349
2.306 -11.261 -1.351
2.333 -11.215 -1.346
2.354 -11.229 -1.348
2.392 -11.235 -1.35
2.43 -11.239 -1.352
2.471 -11.255 -1.355
2.508 -11.255 -1.356
2.579 -11.403 -1.378
2.614 -11.393 -1.377
2.633 -11.393 -1.378
2.683 -11.446 -1.386
2.699 -11.353 -1.375
2.728 -11.317 -1.371
2.789 -11.411 -1.385
2.868 -11.577 -1.409
2.883 -11.483 -1.398
2.893 -11.446 -1.393
2.935 -11.46 -1.396
2.989 -11.522 -1.406
3.001 -11.42 -1.393
3.017 -11.334 -1.383
3.683 -13.478 -1.685
3.704 -13.471 -1.685
3.753 -13.484 -1.688
3.8 -13.489 -1.691
3.844 -13.481 -1.691
3.891 -13.486 -1.694
3.938 -13.491 -1.696
2.188 -7.241 -0.821
2.24 -7.248 -0.824
2.261 -7.235 -0.823
2.278 -7.251 -0.826
2.295 -7.225 -0.823
2.32 -7.225 -0.824
2.348 -7.234 -0.827
2.37 -7.223 -0.826
2.393 -7.218 -0.827
2.42 -7.223 -0.828
2.43 -7.216 -0.828
2.456 -7.216 -0.829
2.482 -7.217 -0.83
2.504 -7.209 -0.83
2.528 -7.203 -0.831
2.558 -7.216 -0.834
2.575 -7.195 -0.832
2.589 -7.198 -0.833
2.619 -7.209 -0.835
2.637 -7.189 -0.834
2.663 -7.188 -0.835
2.691 -7.195 -0.837
2.712 -7.182 -0.836
2.737 -7.179 -0.837
2.756 -7.196 -0.84
2.775 -7.178 -0.839
2.8 -7.176 -0.84
2.827 -7.178 -0.842
2.847 -7.162 -0.84
2.872 -7.161 -0.842
2.888 -7.167 -0.843
2.909 -7.154 -0.843
2.935 -7.154 -0.844
2.964 -7.16 -0.846
2.986 -7.148 -0.846
3.012 -7.148 -0.847
3.037 -7.146 -0.848
3.052 -7.148 -0.849
3.077 -7.146 -0.85
3.103 -7.144 -0.851
3.125 -7.132 -0.851
3.156 -7.142 -0.854
3.178 -7.132 -0.854
3.201 -7.122 -0.854
3.22 -7.135 -0.857
3.245 -7.13 -0.858
3.207 -6.989 -0.838
3.289 -7.108 -0.857
4.966 -10.527 -1.371
1.379 -2.908 -0.235
1.358 -2.843 -0.226
1.388 -2.881 -0.233
1.387 -2.857 -0.23
1.393 -2.846 -0.229
1.415 -2.879 -0.234
1.41 -2.846 -0.23
1.424 -2.83 -0.229
5.285 -10.429 -1.378
5.33 -10.356 -1.372
5.398 -10.408 -1.382
5.429 -10.388 -1.382
5.446 -10.381 -1.382
1.535 -2.922 -0.246
1.391 -2.633 -0.203
5.454 -10.317 -1.375
1.443 -2.709 -0.215
1.456 -2.693 -0.214
1.476 -2.718 -0.218
5.585 -10.251 -1.375
1.581 -2.887 -0.245
1.585 -2.873 -0.244
1.58 -2.844 -0.24
1.575 -2.813 -0.236
1.592 -2.824 -0.238
1.593 -2.805 -0.236
1.589 -2.787 -0.234
1.61 -2.804 -0.237
1.622 -2.804 -0.238
1.64 -2.814 -0.241
1.645 -2.802 -0.239
1.664 -2.814 -0.242
1.641 -2.766 -0.235
1.628 -2.725 -0.229
1.633 -2.715 -0.229
1.652 -2.727 -0.231
1.644 -2.694 -0.227
1.656 -2.694 -0.228
1.672 -2.703 -0.23
1.654 -2.665 -0.224
1.691 -2.703 -0.231
1.724 -2.736 -0.237
4.53 -7.063 -0.933
4.557 -7.057 -0.934
4.591 -7.061 -0.937
4.623 -7.062 -0.939
4.636 -7.056 -0.94
4.669 -7.058 -0.942
4.694 -7.048 -0.943
4.721 -7.04 -0.944
4.746 -7.03 -0.945
4.769 -7.017 -0.945
4.719 -6.897 -0.928
4.718 -6.872 -0.925
4.704 -6.807 -0.917
4.705 -6.763 -0.912
4.716 -6.733 -0.91
4.705 -6.673 -0.902
4.708 -6.632 -0.898
4.705 -6.607 -0.895
4.691 -6.544 -0.887
4.697 -6.509 -0.884
4.691 -6.459 -0.878
4.686 -6.409 -0.872
4.68 -6.359 -0.866
4.7 -6.344 -0.866
4.716 -6.345 -0.867
4.708 -6.294 -0.861
4.874 -6.471 -0.894
4.867 -6.42 -0.888
4.864 -6.375 -0.882
4.873 -6.345 -0.88
4.837 -6.258 -0.868
4.844 -6.247 -0.867
7.488 -9.572 -1.44
7.506 -9.533 -1.437
7.588 -9.574 -1.448
7.731 -9.691 -1.473
7.845 -9.77 -1.491
7.839 -9.701 -1.483
7.862 -9.698 -1.485
7.905 -9.688 -1.487
7.945 -9.676 -1.489
8 -9.68 -1.494
8.038 -9.663 -1.496
8.077 -9.649 -1.498
8.125 -9.645 -1.502
8.15 -9.644 -1.504
8.201 -9.642 -1.508
8.248 -9.636 -1.512
8.286 -9.619 -1.513
8.328 -9.606 -1.516
8.377 -9.601 -1.519
8.409 -9.607 -1.523
8.447 -9.59 -1.524
8.497 -9.585 -1.528
8.553 -9.588 -1.534
8.586 -9.564 -1.534
8.633 -9.556 -1.538
8.638 -9.501 -1.533
11.446 -12.538 -2.09
7.032 -7.669 -1.204
7.026 -7.615 -1.198
7.022 -7.562 -1.193
7.018 -7.511 -1.187
7.015 -7.461 -1.182
7.015 -7.414 -1.177
7.003 -7.379 -1.173
6.989 -7.318 -1.166
6.989 -7.272 -1.161
6.985 -7.223 -1.156
6.989 -7.181 -1.152
6.976 -7.124 -1.146
6.979 -7.082 -1.142
6.964 -7.044 -1.137
6.959 -6.996 -1.132
6.966 -6.959 -1.129
6.956 -6.906 -1.123
6.953 -6.859 -1.118
6.946 -6.81 -1.113
6.934 -6.756 -1.107
6.928 -6.729 -1.103
6.976 -6.733 -1.109
7.006 -6.719 -1.11
7.04 -6.709 -1.113
7.088 -6.713 -1.118
7.124 -6.704 -1.12
7.149 -6.707 -1.123
7.193 -6.706 -1.127
7.232 -6.699 -1.13
7.27 -6.692 -1.134
7.315 -6.691 -1.138
7.35 -6.681 -1.141
7.395 -6.679 -1.145
7.429 -6.689 -1.149
7.457 -6.672 -1.15
7.504 -6.671 -1.155
7.553 -6.672 -1.16
7.593 -6.665 -1.164
7.632 -6.657 -1.167
7.678 -6.655 -1.171
7.704 -6.656 -1.174
7.741 -6.646 -1.177
7.786 -6.642 -1.181
7.825 -6.633 -1.184
7.867 -6.626 -1.188
7.914 -6.623 -1.193
7.94 -6.623 -1.195
7.979 -6.613 -1.199
8.032 -6.614 -1.204
8.074 -6.607 -1.208
8.118 -6.6 -1.212
8.166 -6.597 -1.217
8.221 -6.598 -1.223
8.259 -6.608 -1.227
12.63 -10.022 -1.975
12.638 -9.964 -1.971
12.66 -9.917 -1.97
12.678 -9.867 -1.967
12.695 -9.816 -1.965
12.718 -9.77 -1.964
12.737 -9.753 -1.964
12.755 -9.703 -1.962
12.742 -9.631 -1.955
12.766 -9.586 -1.954
12.771 -9.527 -1.95
12.777 -9.469 -1.946
12.784 -9.413 -1.942
12.783 -9.381 -1.939
12.791 -9.325 -1.936
12.811 -9.278 -1.934
12.821 -9.224 -1.931
12.822 -9.164 -1.926
12.852 -9.125 -1.927
12.831 -9.08 -1.921
12.847 -9.03 -1.919
12.859 -8.978 -1.916
12.849 -8.912 -1.91
12.835 -8.843 -1.903
12.833 -8.782 -1.898
12.79 -8.694 -1.886
12.772 -8.653 -1.881
12.771 -8.594 -1.877
12.767 -8.533 -1.872
12.771 -8.477 -1.868
12.782 -8.427 -1.866
12.727 -8.334 -1.853
12.798 -8.323 -1.86
12.693 -8.227 -1.841
12.801 -8.239 -1.854
4.668 -3.003 -0.55
4.694 -2.999 -0.552
12.833 -8.034 -1.843
12.829 -7.976 -1.838
12.82 -7.942 -1.835
12.816 -7.884 -1.83
12.844 -7.846 -1.831
12.836 -7.786 -1.826
12.837 -7.731 -1.822
12.846 -7.682 -1.819
12.846 -7.627 -1.816
12.851 -7.603 -1.815
12.884 -7.568 -1.816
12.882 -7.512 -1.812
12.905 -7.472 -1.812
12.898 -7.413 -1.807
12.895 -7.358 -1.803
12.894 -7.331 -1.801
12.909 -7.286 -1.8
12.933 -7.246 -1.8
12.944 -7.199 -1.798
12.987 -7.169 -1.801
12.975 -7.11 -1.796
12.988 -7.064 -1.795
13.001 -7.045 -1.795
12.955 -6.967 -1.785
12.989 -6.933 -1.787
12.985 -6.878 -1.783
12.962 -6.814 -1.776
13 -6.782 -1.778
13.012 -6.736 -1.777
13.012 -6.711 -1.775
13.024 -6.665 -1.774
13.047 -6.625 -1.774
13.048 -6.574 -1.771
13.051 -6.524 -1.769
7.33 -3.62 -0.904
7.295 -3.588 -0.897
13.056 -6.349 -1.759
13.054 -6.297 -1.756
13.074 -6.256 -1.756
12.844 -6.097 -1.718
12.575 -5.922 -1.675
13.093 -6.114 -1.75
13.002 -6.047 -1.735
12.541 -5.786 -1.664
12.484 -5.712 -1.652
12.373 -5.615 -1.633
13.136 -5.91 -1.743
13.177 -5.878 -1.747
13.168 -5.85 -1.744
13.19 -5.81 -1.745
13.204 -5.767 -1.744
13.215 -5.722 -1.743
11.953 -5.134 -1.555
11.933 -5.081 -1.55
13.221 -5.577 -1.736
13.209 -5.548 -1.733
13.208 -5.499 -1.73
13.25 -5.467 -1.734
13.224 -5.409 -1.728
11.591 -4.701 -1.488
11.607 -4.666 -1.488
13.214 -5.26 -1.719
13.23 -5.242 -1.72
13.216 -5.189 -1.716
13.255 -5.156 -1.719
13.258 -5.109 -1.717
13.283 -5.071 -1.718
13.281 -5.022 -1.716
13.291 -4.978 -1.715
13.3 -4.958 -1.715
13.29 -4.907 -1.711
13.29 -4.86 -1.709
13.283 -4.81 -1.706
13.259 -4.754 -1.7
13.27 -4.711 -1.7
13.279 -4.691 -1.7
13.262 -4.638 -1.696
13.288 -4.6 -1.697
13.278 -4.55 -1.694
13.27 -4.501 -1.691
13.263 -4.452 -1.688
13.219 -4.391 -1.679
13.256 -4.38 -1.684
13.23 -4.326 -1.678
13.258 -4.289 -1.68
13.257 -4.243 -1.678
13.234 -4.19 -1.673
13.249 -4.149 -1.673
13.258 -4.106 -1.673
13.257 -4.083 -1.672
13.289 -4.047 -1.674
13.288 -4.001 -1.672
13.289 -3.956 -1.671
13.317 -3.919 -1.673
13.297 -3.867 -1.668
13.308 -3.848 -1.669
13.33 -3.809 -1.671
13.3 -3.755 -1.665
13.344 -3.722 -1.669
13.335 -3.675 -1.666
13.325 -3.627 -1.663
13.321 -3.581 -1.661
13.338 -3.563 -1.663
13.307 -3.51 -1.657
13.324 -3.47 -1.658
13.329 -3.427 -1.657
13.344 -3.386 -1.657
13.321 -3.336 -1.653
13.336 -3.295 -1.653
13.345 -3.275 -1.654
13.343 -3.23 -1.652
13.328 -3.182 -1.649
13.365 -3.147 -1.653
13.346 -3.098 -1.649
13.362 -3.057 -1.649
13.373 -3.016 -1.65
13.358 -2.99 -1.647
13.377 -2.951 -1.648
13.385 -2.908 -1.648
13.382 -2.864 -1.646
13.403 -2.824 -1.648
13.392 -2.778 -1.645
13.397 -2.735 -1.645
13.432 -2.72 -1.649
13.408 -2.671 -1.645
13.422 -2.63 -1.645
13.479 -2.598 -1.652
13.438 -2.546 -1.645
13.473 -2.509 -1.649
13.483 -2.467 -1.649
13.497 -2.447 -1.651
13.483 -2.401 -1.648
13.481 -2.357 -1.646
13.519 -2.32 -1.651
13.509 -2.275 -1.648
13.51 -2.231 -1.648
13.525 -2.212 -1.649
13.53 -2.169 -1.649
13.519 -2.124 -1.646
13.547 -2.085 -1.649
13.552 -2.042 -1.649
13.558 -1.999 -1.649
13.559 -1.956 -1.648
13.566 -1.935 -1.649
13.587 -1.895 -1.651
13.595 -1.852 -1.651
13.601 -1.809 -1.651
13.603 -1.766 -1.651
13.614 -1.724 -1.652
13.619 -1.681 -1.652
13.64 -1.662 -1.654
13.623 -1.617 -1.651
13.622 -1.573 -1.65
13.647 -1.533 -1.653
13.66 -1.491 -1.654
13.666 -1.448 -1.654
13.688 -1.407 -1.657
13.671 -1.383 -1.654
13.703 -1.343 -1.658
13.703 -1.3 -1.657
13.693 -1.255 -1.655
13.711 -1.213 -1.657
13.697 -1.169 -1.655
13.716 -1.127 -1.657
13.714 -1.105 -1.656
13.731 -1.063 -1.658
13.736 -1.02 -1.659
13.728 -0.976 -1.657
13.715 -0.932 -1.655
13.702 -0.888 -1.653
13.707 -0.867 -1.653
13.734 -0.825 -1.656
13.73 -0.782 -1.656
13.725 -0.738 -1.654
13.731 -0.695 -1.655
13.737 -0.652 -1.656
13.739 -0.609 -1.656
13.746 -0.588 -1.656
13.742 -0.544 -1.656
13.749 -0.501 -1.656
13.759 -0.458 -1.657
13.762 -0.415 -1.658
13.767 -0.372 -1.658
13.78 -0.329 -1.66
13.787 -0.307 -1.661
13.778 -0.264 -1.659
13.782 -0.221 -1.66
13.787 -0.177 -1.66
13.819 -0.134 -1.665
13.812 -0.091 -1.664
13.832 -0.048 -1.666
13.838 -0.026 -1.667
13.178 0.007 -1.667
13.205 0.048 -1.671
13.171 0.09 -1.666
13.175 0.131 -1.667
13.178 0.172 -1.668
13.182 0.214 -1.668
13.175 0.255 -1.667
13.181 0.276 -1.668
13.18 0.317 -1.668
13.177 0.359 -1.668
13.181 0.4 -1.669
13.188 0.442 -1.67
13.173 0.483 -1.668
13.157 0.524 -1.666
13.196 0.546 -1.671
13.171 0.587 -1.668
13.232 0.714 -1.678
13.146 0.751 -1.666
13.118 0.791 -1.662
13.103 0.811 -1.66
13.095 0.851 -1.659
13.066 0.891 -1.656
13.061 0.932 -1.655
13.044 0.972 -1.654
13.024 1.011 -1.651
13.01 1.052 -1.65
13.005 1.072 -1.649
12.986 1.111 -1.647
12.954 1.15 -1.643
12.941 1.189 -1.641
12.951 1.231 -1.643
12.941 1.271 -1.643
12.933 1.291 -1.642
12.911 1.33 -1.639
12.895 1.369 -1.638
12.889 1.41 -1.637
12.869 1.448 -1.635
12.888 1.492 -1.638
12.863 1.53 -1.636
12.837 1.547 -1.632
12.852 1.59 -1.635
12.831 1.628 -1.633
12.822 1.668 -1.632
12.815 1.708 -1.632
12.802 1.747 -1.631
12.794 1.787 -1.631
12.803 1.809 -1.632
12.799 1.849 -1.632
12.805 1.891 -1.634
12.781 1.929 -1.632
12.787 1.971 -1.633
12.755 2.048 -1.631
12.761 2.07 -1.632
12.696 2.182 -1.625
12.641 2.214 -1.618
12.628 2.252 -1.618
12.588 2.286 -1.613
12.547 2.299 -1.608
12.53 2.337 -1.606
12.519 2.375 -1.606
12.515 2.415 -1.606
12.459 2.445 -1.599
12.414 2.477 -1.594
12.381 2.491 -1.59
12.367 2.528 -1.589
12.348 2.565 -1.587
12.31 2.598 -1.583
12.291 2.634 -1.581
12.265 2.669 -1.579
12.256 2.707 -1.579
12.212 2.718 -1.573
12.184 2.752 -1.57
12.177 2.79 -1.57
12.16 2.827 -1.569
12.136 2.861 -1.567
12.129 2.9 -1.567
12.122 2.938 -1.567
12.103 2.954 -1.565
12.071 2.987 -1.562
12.064 3.025 -1.562
12.033 3.057 -1.559
12 3.089 -1.556
11.975 3.123 -1.554
11.94 3.154 -1.55
11.916 3.168 -1.547
11.91 3.206 -1.548
11.873 3.237 -1.544
11.83 3.265 -1.539
11.803 3.297 -1.537
11.768 3.327 -1.533
11.751 3.363 -1.532
11.742 3.38 -1.532
11.713 3.411 -1.529
11.67 3.439 -1.524
11.651 3.473 -1.523
11.629 3.506 -1.521
11.606 3.539 -1.52
11.563 3.566 -1.515
11.538 3.578 -1.512
11.542 3.619 -1.514
11.497 3.645 -1.509
11.459 3.673 -1.505
11.417 3.699 -1.501
11.405 3.735 -1.501
11.383 3.747 -1.498
11.36 3.779 -1.497
11.338 3.812 -1.495
11.306 3.84 -1.492
11.308 3.881 -1.494
11.281 3.911 -1.492
11.235 3.935 -1.487
11.238 3.956 -1.488
11.17 3.971 -1.48
11.157 4.006 -1.48
11.128 4.035 -1.477
11.102 4.066 -1.475
11.08 4.097 -1.474
11.063 4.13 -1.474
11.036 4.14 -1.47
11.005 4.168 -1.468
10.994 4.203 -1.468
10.967 4.233 -1.466
10.924 4.256 -1.461
10.911 4.29 -1.461
10.882 4.298 -1.458
10.87 4.333 -1.458
10.844 4.362 -1.456
10.817 4.391 -1.454
10.794 4.421 -1.453
10.764 4.449 -1.451
10.753 4.484 -1.451
8.615 3.614 -1.124
8.57 3.627 -1.119
8.537 3.644 -1.116
8.557 3.684 -1.121
8.52 3.7 -1.117
8.553 3.747 -1.124
10.556 4.657 -1.435
10.538 4.669 -1.433
10.516 4.699 -1.432
10.494 4.729 -1.431
10.456 4.751 -1.428
10.47 4.797 -1.432
10.42 4.814 -1.427
10.387 4.838 -1.424
10.383 4.856 -1.424
10.341 4.876 -1.42
10.317 4.905 -1.419
10.28 4.927 -1.415
10.255 4.955 -1.414
10.224 4.979 -1.412
10.2 4.988 -1.409
10.152 5.004 -1.404
10.124 5.03 -1.402
10.103 5.059 -1.401
10.041 5.067 -1.394
10.018 5.095 -1.393
9.987 5.12 -1.391
9.948 5.119 -1.386
9.924 5.147 -1.384
9.887 5.167 -1.381
9.874 5.2 -1.382
9.844 5.223 -1.379
9.803 5.241 -1.375
9.755 5.255 -1.37
9.749 5.271 -1.371
9.732 5.302 -1.371
9.717 5.333 -1.371
9.695 5.361 -1.37
9.663 5.383 -1.368
9.628 5.404 -1.365
9.599 5.427 -1.363
9.589 5.441 -1.363
9.549 5.458 -1.359
9.517 5.48 -1.356
9.445 5.478 -1.347
9.386 5.484 -1.341
9.318 5.483 -1.332
9.251 5.483 -1.324
9.189 5.466 -1.315
9.121 5.465 -1.307
9.058 5.466 -1.299
8.992 5.465 -1.291
8.904 5.45 -1.28
8.841 5.45 -1.272
8.792 5.439 -1.265
8.736 5.442 -1.259
8.667 5.437 -1.25
8.598 5.432 -1.241
8.539 5.432 -1.234
8.483 5.435 -1.228
8.428 5.437 -1.221
8.367 5.417 -1.213
8.312 5.418 -1.206
8.254 5.417 -1.199
8.205 5.422 -1.194
8.139 5.415 -1.186
8.082 5.414 -1.179
8.025 5.413 -1.172
7.984 5.404 -1.167
7.931 5.404 -1.16
7.867 5.397 -1.152
7.817 5.399 -1.147
7.774 5.406 -1.142
7.71 5.397 -1.134
7.659 5.398 -1.128
7.618 5.387 -1.123
7.56 5.382 -1.116
7.511 5.383 -1.11
7.46 5.382 -1.104
7.411 5.383 -1.098
7.356 5.378 -1.092
7.32 5.387 -1.088
7.268 5.367 -1.081
7.223 5.368 -1.076
7.185 5.376 -1.072
7.133 5.372 -1.066
7.074 5.362 -1.058
7.049 5.379 -1.057
6.993 5.371 -1.05
6.959 5.362 -1.045
6.911 5.36 -1.04
6.858 5.354 -1.033
6.824 5.362 -1.03
6.781 5.363 -1.026
6.731 5.358 -1.02
6.685 5.339 -1.013
6.659 5.353 -1.011
6.604 5.342 -1.004
6.582 5.359 -1.003
6.524 5.346 -0.996
6.498 5.359 -0.994
6.44 5.346 -0.987
6.41 5.338 -0.983
6.365 5.334 -0.977
6.333 5.341 -0.975
6.289 5.338 -0.969
6.258 5.346 -0.967
6.249 5.373 -0.968
6.256 5.413 -0.973
6.262 5.436 -0.976
6.365 5.559 -0.998
6.368 5.597 -1.002
6.366 5.63 -1.005
6.37 5.67 -1.009
6.366 5.702 -1.012
6.361 5.734 -1.014
6.375 5.765 -1.019
6.365 5.791 -1.02
6.368 5.831 -1.024
6.375 5.874 -1.029
6.371 5.908 -1.032
6.368 5.942 -1.035
6.37 5.981 -1.039
6.366 5.997 -1.04
6.359 6.027 -1.042
6.352 6.058 -1.044
6.122 5.877 -1.003
6.086 5.88 -1
6.062 5.894 -0.999
6.013 5.865 -0.991
5.739 5.635 -0.94
5.919 5.847 -0.98
5.843 5.808 -0.968
5.722 5.725 -0.948
5.679 5.717 -0.943
5.643 5.717 -0.939
5.616 5.707 -0.935
5.552 5.679 -0.926
5.486 5.646 -0.916
5.463 5.658 -0.915
5.428 5.658 -0.912
5.415 5.679 -0.913
5.409 5.709 -0.915
5.403 5.721 -0.916
5.378 5.73 -0.914
5.356 5.743 -0.913
5.362 5.786 -0.918
5.277 5.73 -0.904
5.205 5.688 -0.893
5.154 5.668 -0.886
5.117 5.645 -0.88
5.084 5.645 -0.877
5.039 5.63 -0.871
4.95 5.566 -0.856
4.668 5.285 -0.8
4.639 5.286 -0.797
4.622 5.3 -0.797
4.593 5.284 -0.793
4.562 5.282 -0.79
4.405 5.133 -0.759
4.342 5.093 -0.749
4.384 5.174 -0.762
4.25 5.049 -0.736
4.246 5.06 -0.737
4.205 5.045 -0.731
4.182 5.049 -0.73
4.176 5.074 -0.732
4.159 5.085 -0.732
4.123 5.074 -0.727
4.108 5.088 -0.728
4.06 5.046 -0.719
4.016 5.023 -0.712
3.989 5.022 -0.71
3.987 5.051 -0.713
3.971 5.064 -0.713
3.94 5.057 -0.709
3.922 5.067 -0.709
3.914 5.073 -0.709
3.905 5.095 -0.71
3.89 5.108 -0.711
3.881 5.13 -0.712
3.863 5.139 -0.712
3.851 5.157 -0.713
3.82 5.149 -0.709
3.816 5.161 -0.71
3.821 5.202 -0.715
3.839 5.26 -0.724
3.813 5.259 -0.721
3.833 5.321 -0.73
3.875 5.415 -0.744
3.937 5.536 -0.763
4.006 5.652 -0.782
3.866 5.492 -0.752
3.895 5.57 -0.764
3.827 5.51 -0.751
4.168 6.037 -0.84
4.243 6.187 -0.864
4.301 6.313 -0.883
4.311 6.349 -0.888
4.298 6.372 -0.89
4.306 6.427 -0.897
4.293 6.452 -0.899
4.284 6.482 -0.902
4.262 6.494 -0.901
4.265 6.542 -0.907
3.947 6.205 -0.843
4.562 7.214 -1.01
4.547 7.24 -1.012
3.488 5.623 -0.738
3.491 5.668 -0.744
4.5 7.395 -1.027
4.48 7.414 -1.028
4.451 7.42 -1.027
4.441 7.456 -1.03
3.638 6.226 -0.823
3.548 6.118 -0.803
4.441 7.699 -1.06
4.413 7.707 -1.059
4.382 7.708 -1.057
4.372 7.72 -1.058
4.344 7.727 -1.057
4.332 7.761 -1.06
3.481 6.295 -0.82
3.456 6.295 -0.818
4.243 7.774 -1.056
4.218 7.786 -1.055
4.206 7.794 -1.056
4.194 7.83 -1.059
3.17 5.977 -0.759
3.148 5.98 -0.758
4.104 7.839 -1.054
4.083 7.859 -1.056
4.064 7.852 -1.053
4.042 7.87 -1.054
4.019 7.886 -1.055
3.996 7.902 -1.055
3.968 7.909 -1.054
3.94 7.914 -1.053
3.911 7.918 -1.052
3.906 7.94 -1.054
3.884 7.958 -1.055
3.852 7.956 -1.053
3.827 7.968 -1.053
3.803 7.981 -1.053
3.771 7.979 -1.051
3.74 7.978 -1.049
3.724 8.01 -1.052
3.71 8.014 -1.052
3.685 8.025 -1.052
3.677 8.075 -1.058
3.631 8.039 -1.05
3.619 8.081 -1.055
3.578 8.058 -1.05
3.545 8.051 -1.047
3.55 8.097 -1.053
3.532 8.124 -1.056
3.504 8.13 -1.055
3.476 8.135 -1.054
3.456 8.159 -1.056
3.434 8.179 -1.057
3.413 8.164 -1.054
3.386 8.173 -1.054
3.357 8.176 -1.053
3.308 8.128 -1.044
3.241 8.038 -1.029
2.048 5.151 -0.586
2.027 5.145 -0.585
2.015 5.139 -0.583
1.996 5.136 -0.582
1.983 5.152 -0.583
1.965 5.154 -0.583
1.941 5.138 -0.579
1.922 5.139 -0.578
1.91 5.154 -0.58
1.899 5.149 -0.579
1.88 5.148 -0.578
1.86 5.144 -0.576
1.839 5.135 -0.574
1.828 5.156 -0.576
1.808 5.151 -0.574
1.791 5.154 -0.574
1.782 5.153 -0.574
1.76 5.144 -0.571
1.739 5.135 -0.569
1.726 5.149 -0.571
1.707 5.147 -0.569
1.689 5.147 -0.569
1.674 5.156 -0.569
1.664 5.153 -0.568
1.646 5.151 -0.567
1.629 5.156 -0.567
1.608 5.144 -0.565
1.593 5.155 -0.565
1.572 5.143 -0.563
1.558 5.155 -0.564
1.548 5.152 -0.563
1.533 5.16 -0.564
1.516 5.163 -0.564
1.514 5.216 -0.571
1.514 5.275 -0.579
1.513 5.333 -0.586
1.513 5.397 -0.595
1.52 5.455 -0.603
1.516 5.507 -0.61
1.515 5.569 -0.619
1.51 5.62 -0.625
2.13 8.086 -0.985
2.104 8.093 -0.985
1.939 7.61 -0.913
1.928 7.666 -0.921
1.889 7.614 -0.912
1.86 7.599 -0.909
1.834 7.595 -0.908
1.807 7.591 -0.906
1.786 7.555 -0.901
1.73 7.424 -0.881
1.708 7.435 -0.882
1.705 7.529 -0.895
1.666 7.467 -0.885
1.638 7.453 -0.882
1.627 7.512 -0.89
1.604 7.464 -0.883
1.571 7.425 -0.876
1.547 7.426 -0.876
1.523 7.427 -0.875
1.504 7.453 -0.878
1.474 7.427 -0.874
1.45 7.427 -0.873
1.439 7.434 -0.874
1.415 7.436 -0.873
1.39 7.433 -0.872
1.378 7.495 -0.881
1.35 7.474 -0.877
1.322 7.457 -0.874
1.298 7.455 -0.873
1.29 7.479 -0.876
1.281 7.565 -0.888
1.265 7.616 -0.895
1.254 7.698 -0.906
1.242 7.774 -0.916
1.214 7.76 -0.914
1.179 7.696 -0.904
1.529 10.03 -1.238
1.498 10.039 -1.239
1.467 10.051 -1.24
1.439 10.077 -1.243
1.412 10.117 -1.248
1.381 10.121 -1.248
1.368 10.149 -1.251
1.339 10.175 -1.255
1.31 10.201 -1.258
1.276 10.189 -1.255
1.249 10.232 -1.261
1.221 10.268 -1.266
1.19 10.283 -1.267
1.174 10.285 -1.267
1.144 10.31 -1.27
1.112 10.322 -1.271
1.083 10.359 -1.276
1.052 10.376 -1.278
1.023 10.411 -1.283
0.99 10.41 -1.282
0.957 10.411 -1.282
0.944 10.448 -1.287
0.913 10.473 -1.29
0.879 10.462 -1.288
0.846 10.466 -1.288
0.814 10.479 -1.29
0.783 10.513 -1.294
0.752 10.539 -1.297
0.735 10.538 -1.297
0.702 10.542 -1.297
0.67 10.556 -1.299
0.64 10.6 -1.305
0.606 10.606 -1.306
0.573 10.596 -1.304
0.557 10.622 -1.308
0.525 10.648 -1.311
0.493 10.669 -1.314
0.457 10.635 -1.309
0.426 10.674 -1.314
0.393 10.685 -1.315
0.36 10.702 -1.318
0.228 7.36 -0.844
0.205 7.375 -0.846
0.182 7.385 -0.848
0.159 7.38 -0.847
0.136 7.386 -0.848
0.112 7.385 -0.847
0.089 7.393 -0.848
0.078 7.393 -0.848
0.054 7.389 -0.848
0.031 7.391 -0.848
0.008 7.399 -0.849
-0.015 7.401 -0.849
-0.039 7.421 -0.852
-0.051 5.145 -0.53
-0.067 5.173 -0.534
-0.075 5.143 -0.53
-0.091 5.149 -0.531
-0.109 5.224 -0.541
-0.123 5.122 -0.527
-0.19 7.403 -0.85
-0.213 7.412 -0.851
-0.225 7.402 -0.85
-0.248 7.401 -0.85
-0.272 7.416 -0.852
-0.295 7.407 -0.851
-0.318 7.418 -0.853
-0.342 7.413 -0.852
-0.365 7.426 -0.854
-0.376 7.408 -0.852
-0.399 7.389 -0.849
-0.512 8.56 -1.016
-0.522 8.28 -0.976
-0.528 7.97 -0.932
-0.542 7.276 -0.835
-0.561 7.221 -0.827
-0.577 7.126 -0.814
-0.599 7.129 -0.814
-0.629 7.219 -0.828
-0.652 7.215 -0.827
-0.69 7.381 -0.851
-0.723 7.615 -0.885
-1.06 10.922 -1.355
-1.098 10.96 -1.361
-1.131 10.945 -1.359
-1.163 10.914 -1.356
-1.201 10.946 -1.361
-1.217 10.932 -1.359
-1.248 10.902 -1.355
-1.286 10.926 -1.359
-1.32 10.918 -1.359
-1.355 10.92 -1.359
-1.389 10.911 -1.359
-1.423 10.911 -1.359
-1.444 10.932 -1.363
-1.472 10.88 -1.356
-1.508 10.893 -1.359
-1.545 10.91 -1.362
-1.579 10.903 -1.361
-1.61 10.877 -1.358
-1.647 10.887 -1.361
-1.667 10.906 -1.364
-1.698 10.879 -1.361
-1.732 10.868 -1.36
-1.767 10.871 -1.361
-1.801 10.863 -1.361
-1.839 10.883 -1.364
-1.872 10.867 -1.363
-1.889 10.864 -1.363
-1.932 10.909 -1.37
-1.964 10.893 -1.369
-1.996 10.875 -1.367
-2.035 10.892 -1.37
-2.061 10.841 -1.364
-2.099 10.86 -1.368
-2.116 10.856 -1.368
-2.151 10.852 -1.368
-2.182 10.827 -1.365
-2.218 10.832 -1.367
-2.254 10.835 -1.368
-2.284 10.808 -1.366
-2.315 10.789 -1.364
-2.337 10.809 -1.367
-2.367 10.78 -1.364
-2.4 10.773 -1.364
-2.435 10.767 -1.364
-2.478 10.8 -1.37
-2.51 10.786 -1.37
-2.549 10.8 -1.373
-2.559 10.767 -1.368
-2.597 10.774 -1.371
-2.627 10.752 -1.369
-2.669 10.775 -1.373
-2.696 10.741 -1.37
-2.726 10.717 -1.367
-2.759 10.707 -1.367
-2.779 10.714 -1.369
-2.815 10.715 -1.37
-2.845 10.693 -1.368
-2.88 10.687 -1.369
-2.916 10.688 -1.37
-2.956 10.702 -1.373
-2.984 10.671 -1.37
-3 10.665 -1.37
-3.033 10.653 -1.37
-3.057 10.611 -1.365
-3.106 10.655 -1.373
-3.139 10.643 -1.373
-3.172 10.631 -1.372
