# .PCD v0.7 - Point Cloud Data file format
VERSION 0.7
FIELDS x y z intensity
SIZE 4 4 4 4
TYPE F F F F
COUNT 1 1 1 1
WIDTH 1761
HEIGHT 1
VIEWPOINT 0 0 0 1 0 0 0
POINTS 1761
DATA ascii
4.1199999 -2.5109999 -1.7130001 0
4.152 -2.5120001 -1.724 0
4.1490002 -2.4920001 -1.719 0
4.1529999 -2.477 -1.7180001 0
4.1760001 -2.473 -1.724 0
4.1700001 -2.461 -1.72 0
4.1820002 -2.45 -1.722 0
4.1760001 -2.4289999 -1.716 0
4.1750002 -2.411 -1.712 0
4.2010002 -2.408 -1.72 0
4.2189999 -2.401 -1.725 0
4.2220001 -2.385 -1.723 0
4.2210002 -2.3759999 -1.721 0
4.237 -2.3670001 -1.724 0
4.2459998 -2.355 -1.725 0
4.2480001 -2.339 -1.723 0
4.2649999 -2.3310001 -1.727 0
4.2690001 -2.316 -1.725 0
4.2600002 -2.302 -1.72 0
4.2649999 -2.2880001 -1.719 0
4.2639999 -2.27 -1.716 0
4.2729998 -2.257 -1.716 0
4.29 -2.2490001 -1.721 0
4.2870002 -2.23 -1.716 0
4.2909999 -2.2149999 -1.715 0
4.3140001 -2.2190001 -1.723 0
4.323 -2.2060001 -1.724 0
4.3249998 -2.1900001 -1.722 0
4.3260002 -2.174 -1.72 0
4.3330002 -2.1600001 -1.72 0
4.3569999 -2.155 -1.727 0
4.3569999 -2.138 -1.724 0
4.362 -2.132 -1.725 0
4.3569999 -2.112 -1.72 0
4.375 -2.1040001 -1.725 0
4.3600001 -2.0799999 -1.716 0
4.3829999 -2.0739999 -1.723 0
4.3959999 -2.0639999 -1.725 0
4.401 -2.049 -1.725 0
4.401 -2.0409999 -1.723 0
4.4109998 -2.0280001 -1.725 0
4.4089999 -2.0109999 -1.721 0
4.427 -2.0020001 -1.726 0
4.4159999 -1.9809999 -1.719 0
4.4219999 -1.967 -1.719 0
4.434 -1.955 -1.721 0
4.447 -1.9529999 -1.725 0
4.4499998 -1.937 -1.724 0
4.473 -1.931 -1.7309999 0
4.46 -1.908 -1.723 0
4.4489999 -1.887 -1.716 0
4.4629998 -1.877 -1.72 0
4.473 -1.873 -1.723 0
4.4840002 -1.8609999 -1.725 0
4.4850001 -1.844 -1.723 0
4.4720001 -1.823 -1.715 0
4.4879999 -1.813 -1.719 0
4.4879999 -1.7970001 -1.717 0
4.4889998 -1.78 -1.715 0
4.4970002 -1.775 -1.717 0
4.5110002 -1.765 -1.721 0
4.5149999 -1.75 -1.72 0
4.5110002 -1.732 -1.716 0
4.5190001 -1.719 -1.717 0
4.5219998 -1.704 -1.716 0
4.527 -1.6900001 -1.716 0
4.5409999 -1.686 -1.721 0
4.5320001 -1.6670001 -1.715 0
4.5560002 -1.66 -1.723 0
4.553 -1.642 -1.719 0
4.5560002 -1.627 -1.7180001 0
4.5650001 -1.614 -1.72 0
4.5580001 -1.596 -1.715 0
4.5599999 -1.5880001 -1.715 0
4.572 -1.577 -1.7180001 0
4.572 -1.5599999 -1.716 0
4.5819998 -1.548 -1.7180001 0
4.5809999 -1.5319999 -1.716 0
4.5879998 -1.518 -1.716 0
4.585 -1.5089999 -1.714 0
4.5999999 -1.498 -1.7180001 0
4.612 -1.4859999 -1.721 0
4.6110001 -1.47 -1.719 0
4.6110001 -1.4529999 -1.717 0
4.612 -1.438 -1.716 0
4.6199999 -1.424 -1.717 0
4.6220002 -1.4170001 -1.717 0
4.6339998 -1.405 -1.72 0
4.6290002 -1.387 -1.716 0
4.6389999 -1.375 -1.7180001 0
4.6560001 -1.364 -1.723 0
4.6440001 -1.344 -1.717 0
4.6479998 -1.33 -1.717 0
4.6550002 -1.324 -1.719 0
4.6560001 -1.308 -1.7180001 0
4.665 -1.295 -1.72 0
4.6690001 -1.281 -1.72 0
4.6880002 -1.27 -1.725 0
4.6919999 -1.255 -1.725 0
4.6900001 -1.247 -1.724 0
4.6810002 -1.229 -1.719 0
4.665 -1.209 -1.711 0
4.6820002 -1.197 -1.716 0
4.678 -1.181 -1.7130001 0
4.6799998 -1.166 -1.7130001 0
4.6750002 -1.149 -1.709 0
4.704 -1.148 -1.72 0
4.7090001 -1.1339999 -1.721 0
4.7160001 -1.12 -1.722 0
4.7360001 -1.109 -1.728 0
4.7270002 -1.091 -1.723 0
4.7179999 -1.073 -1.7180001 0
4.7249999 -1.059 -1.72 0
4.7150002 -1.049 -1.716 0
4.717 -1.034 -1.715 0
4.7470002 -1.025 -1.725 0
4.723 -1.0039999 -1.715 0
4.723 -0.98900002 -1.7130001 0
4.7529998 -0.98000002 -1.724 0
4.7449999 -0.96200001 -1.72 0
4.7360001 -0.95300001 -1.716 0
4.7610002 -0.94199997 -1.724 0
4.7399998 -0.92299998 -1.715 0
4.7410002 -0.90700001 -1.714 0
4.7620001 -0.89600003 -1.721 0
4.7459998 -0.87800002 -1.714 0
4.7529998 -0.86299998 -1.716 0
4.7709999 -0.85900003 -1.722 0
4.7610002 -0.84200001 -1.717 0
4.7480001 -0.824 -1.711 0
4.7750001 -0.81300002 -1.721 0
4.757 -0.79500002 -1.7130001 0
4.7670002 -0.78100002 -1.716 0
4.7789998 -0.76800001 -1.719 0
4.7709999 -0.759 -1.716 0
4.7729998 -0.74400002 -1.716 0
4.7940001 -0.73199999 -1.723 0
4.7740002 -0.713 -1.714 0
4.7800002 -0.699 -1.716 0
4.7930002 -0.685 -1.72 0
4.783 -0.676 -1.716 0
4.796 -0.66299999 -1.72 0
4.7839999 -0.64499998 -1.714 0
4.7859998 -0.63 -1.714 0
4.7930002 -0.616 -1.716 0
4.7989998 -0.602 -1.7180001 0
4.7909999 -0.58499998 -1.714 0
4.8010001 -0.579 -1.7180001 0
4.8049998 -0.56400001 -1.7180001 0
4.7940001 -0.54699999 -1.7130001 0
4.8200002 -0.53500003 -1.723 0
4.8210001 -0.51999998 -1.723 0
4.8189998 -0.50400001 -1.721 0
4.7969999 -0.48699999 -1.712 0
4.8070002 -0.47999999 -1.716 0
4.8080001 -0.465 -1.716 0
4.8060002 -0.44999999 -1.714 0
4.809 -0.435 -1.715 0
4.8179998 -0.41999999 -1.7180001 0
4.8119998 -0.40400001 -1.715 0
4.8280001 -0.391 -1.721 0
4.8169999 -0.382 -1.716 0
4.8280001 -0.368 -1.72 0
4.8119998 -0.35100001 -1.7130001 0
4.8080001 -0.336 -1.711 0
4.809 -0.32100001 -1.711 0
4.8249998 -0.30700001 -1.717 0
4.8200002 -0.29100001 -1.715 0
4.8130002 -0.28299999 -1.712 0
4.8189998 -0.26800001 -1.714 0
4.809 -0.252 -1.71 0
4.7859998 -0.236 -1.701 0
4.7919998 -0.221 -1.7029999 0
4.789 -0.206 -1.701 0
4.8039999 -0.199 -1.707 0
4.7880001 -0.183 -1.701 0
4.7849998 -0.168 -1.699 0
4.8080001 -0.154 -1.7079999 0
4.8060002 -0.139 -1.707 0
4.7989998 -0.123 -1.704 0
4.7919998 -0.108 -1.701 0
4.803 -0.101 -1.706 0
4.8000002 -0.086000003 -1.704 0
4.7979999 -0.071000002 -1.7029999 0
4.8000002 -0.056000002 -1.704 0
4.8099999 -0.041000001 -1.7079999 0
4.8010001 -0.025 -1.704 0
4.7129998 -0.0099999998 -1.671 0
4.7859998 -0.003 -1.699 0
4.6739998 0.0020000001 -1.706 0
4.6459999 0.016000001 -1.6950001 0
4.6719999 0.030999999 -1.705 0
4.6599998 0.037999999 -1.701 0
4.6939998 0.052999999 -1.714 0
4.6620002 0.067000002 -1.702 0
4.6900001 0.082999997 -1.712 0
4.6719999 0.112 -1.706 0
4.677 0.126 -1.7079999 0
4.6789999 0.134 -1.709 0
4.6690001 0.148 -1.705 0
4.678 0.163 -1.709 0
4.678 0.178 -1.709 0
4.671 0.192 -1.707 0
4.6760001 0.207 -1.709 0
4.6789999 0.222 -1.71 0
4.6739998 0.229 -1.7079999 0
4.6690001 0.244 -1.707 0
4.6420002 0.257 -1.696 0
4.6859999 0.27399999 -1.714 0
4.6719999 0.28799999 -1.709 0
4.6750002 0.303 -1.71 0
4.6830001 0.31799999 -1.714 0
4.6719999 0.32499999 -1.71 0
4.6820002 0.34 -1.714 0
4.6880002 0.35600001 -1.717 0
4.6659999 0.36899999 -1.709 0
4.6750002 0.384 -1.712 0
4.677 0.39899999 -1.714 0
4.6230001 0.40200001 -1.693 0
4.6659999 0.435 -1.711 0
4.6539998 0.449 -1.707 0
4.658 0.46399999 -1.709 0
4.664 0.479 -1.712 0
4.6680002 0.495 -1.714 0
4.6490002 0.5 -1.707 0
4.664 0.51599997 -1.7130001 0
4.6440001 0.52899998 -1.706 0
4.6680002 0.54699999 -1.716 0
4.6589999 0.56 -1.7130001 0
4.6399999 0.57300001 -1.707 0
4.6550002 0.58999997 -1.7130001 0
4.6500001 0.597 -1.712 0
4.645 0.611 -1.71 0
4.6479998 0.62599999 -1.712 0
4.619 0.63700002 -1.702 0
4.625 0.68199998 -1.707 0
4.6760001 0.69700003 -1.727 0
4.7340002 0.722 -1.751 0
4.6929998 0.73000002 -1.7359999 0
4.632 0.73500001 -1.712 0
4.6370001 0.75099999 -1.715 0
4.5960002 0.759 -1.7 0
4.5939999 0.77399999 -1.7 0
4.585 0.77899998 -1.697 0
4.598 0.796 -1.7029999 0
4.5949998 0.81099999 -1.7029999 0
4.5830002 0.824 -1.699 0
4.5830002 0.838 -1.7 0
4.5949998 0.85600001 -1.706 0
4.585 0.87599999 -1.704 0
4.5619998 0.88700002 -1.696 0
4.5370002 0.89600003 -1.687 0
4.5349998 0.91100001 -1.687 0
4.552 0.92900002 -1.6950001 0
4.631 0.96100003 -1.728 0
4.6570001 0.97399998 -1.739 0
4.6059999 0.97799999 -1.72 0
4.552 0.98100001 -1.699 0
4.5840001 1.0039999 -1.7130001 0
4.5500002 1.011 -1.701 0
4.5630002 1.029 -1.707 0
4.5500002 1.041 -1.704 0
4.5430002 1.0470001 -1.702 0
4.5349998 1.0599999 -1.699 0
4.5349998 1.075 -1.701 0
4.5209999 1.087 -1.696 0
4.5209999 1.102 -1.698 0
4.5100002 1.114 -1.6950001 0
4.5079999 1.1289999 -1.696 0
4.5120001 1.137 -1.698 0
4.4920001 1.147 -1.691 0
4.4899998 1.1619999 -1.692 0
4.4759998 1.173 -1.688 0
4.487 1.191 -1.694 0
4.4850001 1.206 -1.694 0
4.4790001 1.219 -1.694 0
4.4699998 1.224 -1.691 0
4.4520001 1.234 -1.6849999 0
4.4530001 1.25 -1.687 0
4.4190001 1.255 -1.675 0
4.4380002 1.275 -1.684 0
4.4460001 1.293 -1.689 0
4.4460001 1.308 -1.691 0
4.4299998 1.311 -1.6849999 0
4.4239998 1.324 -1.684 0
4.4369998 1.344 -1.691 0
4.4099998 1.35 -1.682 0
4.4180002 1.368 -1.687 0
4.4120002 1.381 -1.686 0
4.401 1.385 -1.683 0
4.4089999 1.403 -1.688 0
4.3990002 1.415 -1.686 0
4.3649998 1.419 -1.673 0
4.3709998 1.437 -1.678 0
4.3730001 1.4529999 -1.6799999 0
4.362 1.464 -1.678 0
4.368 1.474 -1.681 0
4.3759999 1.492 -1.686 0
4.3569999 1.501 -1.6799999 0
4.3439999 1.511 -1.677 0
4.3460002 1.527 -1.6799999 0
4.336 1.539 -1.678 0
4.3379998 1.5549999 -1.6799999 0
4.3200002 1.556 -1.674 0
4.3080001 1.567 -1.671 0
4.3169999 1.586 -1.677 0
4.3010001 1.596 -1.6720001 0
4.296 1.609 -1.6720001 0
4.302 1.627 -1.677 0
4.3010001 1.6339999 -1.678 0
4.277 1.64 -1.67 0
4.2870002 1.66 -1.676 0
4.2649999 1.666 -1.669 0
4.2540002 1.678 -1.6670001 0
4.2420001 1.688 -1.664 0
4.2610002 1.711 -1.674 0
4.2649999 1.721 -1.677 0
4.2490001 1.73 -1.6720001 0
4.2540002 1.748 -1.677 0
4.2280002 1.752 -1.668 0
4.2309999 1.7690001 -1.6720001 0
4.2309999 1.785 -1.674 0
4.2199998 1.796 -1.6720001 0
4.2119999 1.8 -1.67 0
4.2249999 1.822 -1.678 0
4.2020001 1.827 -1.67 0
4.1880002 1.837 -1.6670001 0
4.1290002 1.826 -1.6440001 0
4.1859999 1.868 -1.671 0
4.177 1.8789999 -1.67 0
4.1830001 1.89 -1.673 0
4.1599998 1.895 -1.666 0
4.1570001 1.91 -1.6670001 0
4.1680002 1.931 -1.675 0
4.1469998 1.936 -1.668 0
4.1459999 1.952 -1.67 0
4.1430001 1.9579999 -1.67 0
4.1209998 1.964 -1.664 0
4.1030002 1.971 -1.659 0
4.132 2.0009999 -1.674 0
4.1160002 2.0090001 -1.67 0
4.1129999 2.0239999 -1.671 0
4.1020002 2.0339999 -1.669 0
4.1020002 2.043 -1.67 0
4.1420002 2.079 -1.691 0
4.1290002 2.089 -1.688 0
4.099 2.0899999 -1.678 0
4.0689998 2.0910001 -1.6670001 0
4.0440001 2.0940001 -1.659 0
4.02 2.0969999 -1.651 0
4.013 2.1010001 -1.65 0
4.039 2.132 -1.664 0
4.0359998 2.1459999 -1.666 0
4.0289998 2.1589999 -1.666 0
4.0209999 2.171 -1.665 0
3.9990001 2.175 -1.659 0
4.0139999 2.1989999 -1.668 0
3.9920001 2.1960001 -1.66 0
3.9820001 2.2060001 -1.659 0
3.98 2.2219999 -1.661 0
3.9779999 2.237 -1.663 0
3.961 2.244 -1.659 0
3.9560001 2.257 -1.659 0
3.9489999 2.27 -1.659 0
3.95 2.279 -1.6619999 0
3.9300001 2.283 -1.656 0
3.937 2.3039999 -1.6619999 0
3.911 2.3050001 -1.654 0
3.9349999 2.3369999 -1.668 0
3.9419999 2.358 -1.675 0
3.9719999 2.3840001 -1.6900001 0
3.921 2.3699999 -1.67 0
3.8900001 2.368 -1.659 0
3.859 2.3659999 -1.648 0
3.8410001 2.3710001 -1.643 0
3.8380001 2.3859999 -1.646 0
3.832 2.3989999 -1.646 0
3.845 2.4159999 -1.654 0
3.822 2.418 -1.647 0
3.8099999 2.427 -1.645 0
3.826 2.454 -1.656 0
3.8180001 2.4660001 -1.656 0
3.7939999 2.4679999 -1.648 0
3.796 2.4860001 -1.653 0
3.7920001 2.4920001 -1.653 0
3.789 2.507 -1.655 0
3.779 2.5179999 -1.654 0
3.7550001 2.5179999 -1.646 0
3.7539999 2.5350001 -1.65 0
3.74 2.543 -1.647 0
3.7309999 2.553 -1.646 0
3.73 2.5610001 -1.648 0
3.714 2.5680001 -1.6440001 0
3.701 2.576 -1.642 0
3.698 2.5910001 -1.6440001 0
3.684 2.598 -1.641 0
3.6800001 2.6129999 -1.643 0
3.6630001 2.618 -1.6390001 0
3.6570001 2.6229999 -1.638 0
3.661 2.6429999 -1.6440001 0
3.642 2.6470001 -1.6390001 0
3.625 2.651 -1.635 0
3.609 2.6570001 -1.631 0
3.612 2.678 -1.637 0
3.6040001 2.6889999 -1.637 0
3.598 2.6930001 -1.636 0
3.5969999 2.71 -1.64 0
3.575 2.711 -1.633 0
3.5639999 2.72 -1.632 0
3.5669999 2.7409999 -1.638 0
3.5420001 2.7390001 -1.63 0
3.5409999 2.747 -1.631 0
3.5339999 2.7590001 -1.632 0
3.5280001 2.773 -1.633 0
3.5120001 2.7780001 -1.63 0
3.5 2.7869999 -1.628 0
3.5 2.8050001 -1.632 0
3.4890001 2.813 -1.631 0
3.483 2.8180001 -1.63 0
3.47 2.825 -1.628 0
3.461 2.836 -1.628 0
3.45 2.846 -1.627 0
3.444 2.859 -1.6289999 0
3.4319999 2.8670001 -1.627 0
3.425 2.8789999 -1.628 0
3.4200001 2.885 -1.628 0
3.408 2.8929999 -1.627 0
3.401 2.905 -1.627 0
3.3870001 2.9119999 -1.625 0
3.3710001 2.9159999 -1.622 0
3.3599999 2.9260001 -1.6210001 0
3.3469999 2.9319999 -1.619 0
3.3010001 2.901 -1.597 0
3.3280001 2.9430001 -1.6160001 0
3.3310001 2.9649999 -1.622 0
3.3280001 2.9820001 -1.626 0
3.312 2.9860001 -1.622 0
3.3010001 2.9949999 -1.622 0
3.303 3.0150001 -1.627 0
3.2820001 3.0050001 -1.619 0
3.2820001 3.0250001 -1.624 0
3.2709999 3.0339999 -1.623 0
3.237 3.0209999 -1.61 0
3.244 3.046 -1.619 0
3.2379999 3.0599999 -1.6210001 0
3.2349999 3.0669999 -1.622 0
3.234 3.086 -1.627 0
3.223 3.095 -1.626 0
3.187 3.079 -1.6109999 0
3.1889999 3.1010001 -1.618 0
3.1700001 3.1010001 -1.613 0
3.1670001 3.118 -1.6160001 0
3.161 3.122 -1.6160001 0
3.155 3.1359999 -1.618 0
3.1289999 3.1300001 -1.609 0
3.1370001 3.1570001 -1.619 0
3.1229999 3.1619999 -1.6160001 0
3.1210001 3.1800001 -1.6210001 0
3.092 3.171 -1.6109999 0
3.0929999 3.1819999 -1.614 0
3.0799999 3.1889999 -1.612 0
3.066 3.194 -1.61 0
3.0650001 3.2130001 -1.615 0
3.05 3.217 -1.612 0
3.046 3.234 -1.6160001 0
3.0280001 3.2349999 -1.6109999 0
3.0250001 3.2409999 -1.612 0
3.0020001 3.237 -1.605 0
3.003 3.2590001 -1.6109999 0
2.971 3.2449999 -1.599 0
2.967 3.2609999 -1.603 0
2.9530001 3.266 -1.6 0
2.9460001 3.2780001 -1.602 0
2.937 3.279 -1.6 0
2.934 3.296 -1.604 0
2.9159999 3.2969999 -1.6 0
2.911 3.312 -1.603 0
2.9000001 3.3210001 -1.603 0
2.8800001 3.319 -1.597 0
2.8829999 3.3329999 -1.602 0
2.868 3.336 -1.599 0
2.855 3.3429999 -1.598 0
2.842 3.349 -1.596 0
2.8269999 3.352 -1.5930001 0
2.8210001 3.3670001 -1.596 0
2.806 3.3699999 -1.5930001 0
2.799 3.3729999 -1.592 0
2.789 3.381 -1.592 0
2.783 3.3959999 -1.595 0
2.766 3.3970001 -1.592 0
2.7539999 3.405 -1.591 0
2.74 3.4089999 -1.589 0
2.7309999 3.4189999 -1.59 0
2.7260001 3.425 -1.59 0
2.7060001 3.421 -1.584 0
2.6930001 3.427 -1.5829999 0
2.684 3.437 -1.584 0
2.6719999 3.444 -1.5829999 0
2.6730001 3.4690001 -1.591 0
2.6619999 3.477 -1.591 0
2.6489999 3.471 -1.586 0
2.638 3.4790001 -1.586 0
2.628 3.4890001 -1.587 0
2.6110001 3.4879999 -1.582 0
2.599 3.4949999 -1.582 0
2.585 3.5 -1.58 0
2.572 3.5050001 -1.579 0
2.573 3.5179999 -1.5829999 0
2.556 3.517 -1.579 0
2.549 3.5309999 -1.582 0
2.536 3.536 -1.58 0
2.527 3.5469999 -1.582 0
2.517 3.556 -1.582 0
2.4979999 3.5539999 -1.577 0
2.507 3.579 -1.587 0
2.49 3.5780001 -1.5829999 0
2.474 3.579 -1.58 0
2.454 3.573 -1.574 0
2.441 3.579 -1.573 0
2.431 3.589 -1.574 0
2.418 3.5929999 -1.572 0
2.421 3.6110001 -1.579 0
2.4070001 3.6140001 -1.576 0
2.395 3.6199999 -1.576 0
2.378 3.619 -1.572 0
2.3659999 3.625 -1.571 0
2.3599999 3.642 -1.576 0
2.3499999 3.638 -1.572 0
2.342 3.652 -1.575 0
2.3299999 3.6570001 -1.574 0
2.3139999 3.658 -1.571 0
2.3069999 3.6719999 -1.574 0
2.303 3.6919999 -1.58 0
2.2820001 3.6830001 -1.573 0
2.2720001 3.694 -1.574 0
2.26 3.688 -1.5700001 0
2.2520001 3.6989999 -1.572 0
2.2390001 3.7049999 -1.571 0
2.2260001 3.71 -1.571 0
2.2119999 3.7119999 -1.568 0
2.201 3.721 -1.569 0
2.1889999 3.7260001 -1.568 0
2.188 3.7390001 -1.573 0
2.1700001 3.7349999 -1.568 0
2.154 3.734 -1.564 0
2.1400001 3.737 -1.563 0
2.1359999 3.757 -1.568 0
2.1229999 3.7620001 -1.568 0
2.108 3.7639999 -1.566 0
2.1029999 3.767 -1.566 0
2.0880001 3.7690001 -1.563 0
2.0769999 3.777 -1.564 0
2.0669999 3.7869999 -1.566 0
2.049 3.7820001 -1.5599999 0
2.04 3.793 -1.563 0
2.0380001 3.8039999 -1.566 0
2.0220001 3.802 -1.563 0
2.0139999 3.8169999 -1.566 0
1.995 3.8099999 -1.5599999 0
1.988 3.826 -1.5650001 0
1.971 3.823 -1.5599999 0
1.9579999 3.8269999 -1.5599999 0
1.957 3.839 -1.563 0
1.947 3.8499999 -1.566 0
1.925 3.836 -1.557 0
1.9119999 3.8399999 -1.556 0
1.905 3.8559999 -1.5599999 0
1.885 3.845 -1.553 0
1.877 3.8610001 -1.558 0
1.8660001 3.869 -1.558 0
1.862 3.875 -1.5599999 0
1.841 3.862 -1.552 0
1.836 3.885 -1.559 0
1.829 3.901 -1.563 0
1.807 3.8859999 -1.5549999 0
1.794 3.8900001 -1.554 0
1.7819999 3.8959999 -1.554 0
1.777 3.9000001 -1.5549999 0
1.773 3.925 -1.563 0
1.758 3.925 -1.5599999 0
1.752 3.944 -1.566 0
1.7359999 3.941 -1.563 0
1.7180001 3.9349999 -1.558 0
1.719 3.9530001 -1.564 0
1.697 3.9360001 -1.5549999 0
1.689 3.951 -1.559 0
1.67 3.941 -1.552 0
1.658 3.948 -1.553 0
1.65 3.964 -1.558 0
1.638 3.971 -1.558 0
1.633 3.9749999 -1.559 0
1.617 3.971 -1.5549999 0
1.602 3.971 -1.553 0
1.594 3.9879999 -1.558 0
1.585 4 -1.561 0
1.573 4.007 -1.562 0
1.559 4.0100002 -1.561 0
1.544 3.9879999 -1.551 0
1.536 4.0050001 -1.556 0
1.521 4.0050001 -1.554 0
1.521 4.0430002 -1.568 0
1.5039999 4.0349998 -1.563 0
1.485 4.0229998 -1.5549999 0
1.467 4.013 -1.55 0
1.469 4.0380001 -1.559 0
1.4579999 4.046 -1.5599999 0
1.444 4.0489998 -1.5599999 0
1.428 4.0430002 -1.5549999 0
1.42 4.0619998 -1.561 0
1.402 4.052 -1.5549999 0
1.396 4.0739999 -1.563 0
1.385 4.0640001 -1.558 0
1.375 4.0749998 -1.5599999 0
1.355 4.0599999 -1.552 0
1.347 4.0770001 -1.558 0
1.336 4.086 -1.5599999 0
1.3200001 4.0830002 -1.557 0
1.314 4.1069999 -1.5650001 0
1.307 4.1090002 -1.5650001 0
1.293 4.1100001 -1.563 0
1.276 4.099 -1.558 0
1.2690001 4.1209998 -1.5650001 0
1.253 4.1160002 -1.561 0
1.235 4.1040001 -1.5549999 0
1.224 4.1129999 -1.557 0
1.219 4.1209998 -1.559 0
1.205 4.119 -1.557 0
1.1950001 4.1350002 -1.562 0
1.177 4.1209998 -1.5549999 0
1.1670001 4.1360002 -1.559 0
1.154 4.138 -1.558 0
1.1390001 4.1360002 -1.556 0
1.131 4.132 -1.554 0
1.123 4.1550002 -1.562 0
1.1059999 4.1409998 -1.5549999 0
1.094 4.1479998 -1.556 0
1.0829999 4.1620002 -1.5599999 0
1.068 4.1550002 -1.556 0
1.054 4.1550002 -1.5549999 0
1.045 4.1469998 -1.551 0
1.031 4.1469998 -1.55 0
1.021 4.1609998 -1.554 0
1.01 4.1750002 -1.558 0
0.99199998 4.158 -1.55 0
0.97899997 4.1589999 -1.55 0
0.96899998 4.177 -1.5549999 0
0.95899999 4.1620002 -1.549 0
0.94800001 4.1760001 -1.553 0
0.93599999 4.184 -1.5549999 0
0.92299998 4.1859999 -1.5549999 0
0.91100001 4.198 -1.558 0
0.89700001 4.1950002 -1.556 0
0.88499999 4.2049999 -1.559 0
0.87300003 4.177 -1.5470001 0
0.86299998 4.1950002 -1.553 0
0.847 4.1859999 -1.549 0
0.83200002 4.1760001 -1.544 0
0.82200003 4.197 -1.551 0
0.80900002 4.1999998 -1.551 0
0.792 4.1799998 -1.5420001 0
0.79000002 4.2090001 -1.553 0
0.77499998 4.2020001 -1.55 0
0.76200002 4.2049999 -1.55 0
0.74900001 4.2069998 -1.55 0
0.736 4.2150002 -1.552 0
0.72600001 4.2340002 -1.558 0
0.71100003 4.2249999 -1.554 0
0.70499998 4.23 -1.5549999 0
0.68900001 4.2189999 -1.55 0
0.676 4.2210002 -1.55 0
0.662 4.2140002 -1.5470001 0
0.65200001 4.2399998 -1.556 0
0.63700002 4.2309999 -1.552 0
0.63200003 4.243 -1.556 0
0.61699998 4.2360001 -1.552 0
0.60500002 4.2490001 -1.557 0
0.58999997 4.2379999 -1.552 0
0.57599998 4.2340002 -1.55 0
0.565 4.2519999 -1.556 0
0.551 4.2449999 -1.552 0
0.54500002 4.257 -1.557 0
0.52999997 4.2459998 -1.552 0
0.51700002 4.2490001 -1.552 0
0.505 4.256 -1.5549999 0
0.493 4.2709999 -1.5599999 0
0.477 4.2540002 -1.552 0
0.463 4.2519999 -1.551 0
0.44999999 4.2550001 -1.552 0
0.44400001 4.2589998 -1.553 0
0.43099999 4.2659998 -1.5549999 0
0.419 4.2839999 -1.562 0
0.40400001 4.2649999 -1.554 0
0.391 4.2719998 -1.556 0
0.37799999 4.2750001 -1.557 0
0.36300001 4.2649999 -1.552 0
0.35800001 4.277 -1.557 0
0.34400001 4.276 -1.556 0
0.33000001 4.2709999 -1.554 0
0.31600001 4.2649999 -1.551 0
0.30500001 4.2940001 -1.562 0
0.29100001 4.2870002 -1.559 0
0.28400001 4.2800002 -1.556 0
0.271 4.289 -1.559 0
0.257 4.2859998 -1.558 0
0.243 4.2849998 -1.557 0
0.23 4.2800002 -1.5549999 0
0.21699999 4.2969999 -1.561 0
0.20299999 4.2849998 -1.556 0
0.19599999 4.2849998 -1.556 0
0.183 4.2880001 -1.557 0
0.17 4.3119998 -1.566 0
0.156 4.3060002 -1.563 0
0.14300001 4.3039999 -1.563 0
0.12899999 4.29 -1.557 0
0.115 4.296 -1.559 0
0.109 4.2919998 -1.558 0
0.094999999 4.2919998 -1.558 0
0.082000002 4.2909999 -1.557 0
0.068000004 4.2779999 -1.552 0
0.055 4.2989998 -1.5599999 0
0.041000001 4.2750001 -1.55 0
0.028000001 4.3140001 -1.566 0
0.014 4.3060002 -1.563 0
0.0070000002 4.316 -1.566 0
-0.0060000001 4.3200002 -1.568 0
-0.018999999 4.2930002 -1.558 0
-0.033 4.2989998 -1.5599999 0
-0.046999998 4.3169999 -1.567 0
-0.059999999 4.2969999 -1.559 0
-0.067000002 4.2969999 -1.559 0
-0.081 4.309 -1.564 0
-0.093999997 4.3039999 -1.562 0
-0.107 4.2919998 -1.558 0
-0.121 4.2940001 -1.558 0
-0.134 4.2909999 -1.558 0
-0.148 4.302 -1.562 0
-0.154 4.2909999 -1.558 0
-0.168 4.2919998 -1.558 0
-0.182 4.3140001 -1.567 0
-0.19499999 4.289 -1.558 0
-0.20900001 4.296 -1.5599999 0
-0.222 4.2989998 -1.562 0
-0.236 4.296 -1.561 0
-0.242 4.2940001 -1.5599999 0
-0.25600001 4.2880001 -1.558 0
-0.271 4.3130002 -1.568 0
-0.28400001 4.3080001 -1.567 0
-0.29800001 4.3150001 -1.5700001 0
-0.31200001 4.316 -1.571 0
-0.324 4.2940001 -1.563 0
-0.33700001 4.2950001 -1.563 0
-0.34299999 4.2870002 -1.5599999 0
-0.35800001 4.2969999 -1.5650001 0
-0.37200001 4.2979999 -1.566 0
-0.38699999 4.3150001 -1.573 0
-0.40099999 4.316 -1.574 0
-0.41100001 4.283 -1.561 0
-0.41999999 4.3010001 -1.568 0
-0.43399999 4.3070002 -1.571 0
-0.44600001 4.2950001 -1.567 0
-0.461 4.3010001 -1.5700001 0
-0.47600001 4.3140001 -1.576 0
-0.48699999 4.2919998 -1.568 0
-0.49900001 4.2810001 -1.564 0
-0.50800002 4.2950001 -1.5700001 0
-0.51999998 4.283 -1.566 0
-0.53299999 4.2810001 -1.566 0
-0.54699999 4.2789998 -1.566 0
-0.56199998 4.2870002 -1.569 0
-0.574 4.2789998 -1.567 0
-0.58499998 4.2610002 -1.5599999 0
-0.597 4.2930002 -1.574 0
-0.611 4.2930002 -1.574 0
-0.62300003 4.2880001 -1.573 0
-0.63700002 4.289 -1.574 0
-0.64999998 4.2820001 -1.572 0
-0.66500002 4.2870002 -1.575 0
-0.676 4.2740002 -1.571 0
-0.68599999 4.2909999 -1.5779999 0
-0.69700003 4.276 -1.573 0
-0.71100003 4.2740002 -1.573 0
-0.72299999 4.2620001 -1.569 0
-0.73900002 4.2750001 -1.575 0
-0.75199997 4.2740002 -1.576 0
-0.76300001 4.2589998 -1.571 0
-0.773 4.2729998 -1.576 0
-0.78600001 4.2659998 -1.575 0
-0.80400002 4.29 -1.585 0
-0.81599998 4.2800002 -1.582 0
-0.82999998 4.2810001 -1.584 0
-0.84299999 4.2729998 -1.582 0
-0.85799998 4.2810001 -1.586 0
-0.86000001 4.2579999 -1.577 0
-0.875 4.2620001 -1.58 0
-0.88999999 4.2649999 -1.582 0
-0.903 4.2620001 -1.582 0
-0.91600001 4.257 -1.582 0
-0.92900002 4.2509999 -1.58 0
-0.94599998 4.2639999 -1.587 0
-0.95099998 4.256 -1.584 0
-0.96600002 4.2579999 -1.586 0
-0.98299998 4.2709999 -1.592 0
-0.99000001 4.243 -1.582 0
-1 4.2249999 -1.576 0
-1.0140001 4.2259998 -1.5779999 0
-1.029 4.23 -1.581 0
-1.041 4.2480001 -1.589 0
-1.056 4.2519999 -1.592 0
-1.063 4.223 -1.582 0
-1.077 4.224 -1.5829999 0
-1.092 4.2270002 -1.586 0
-1.101 4.2080002 -1.579 0
-1.1160001 4.211 -1.582 0
-1.125 4.2189999 -1.586 0
-1.1339999 4.197 -1.579 0
-1.155 4.2220001 -1.59 0
-1.165 4.2080002 -1.586 0
-1.175 4.1929998 -1.582 0
-1.187 4.184 -1.579 0
-1.207 4.204 -1.589 0
-1.21 4.191 -1.584 0
-1.228 4.2030001 -1.591 0
-1.24 4.1960001 -1.59 0
-1.251 4.1830001 -1.586 0
-1.2690001 4.197 -1.5930001 0
-1.28 4.184 -1.59 0
-1.298 4.1960001 -1.596 0
-1.306 4.198 -1.598 0
-1.317 4.1880002 -1.595 0
-1.331 4.1859999 -1.596 0
-1.3430001 4.178 -1.595 0
-1.3559999 4.1739998 -1.595 0
-1.3660001 4.1609998 -1.591 0
-1.38 4.1599998 -1.592 0
-1.392 4.1719999 -1.598 0
-1.3940001 4.1360002 -1.585 0
-1.419 4.1669998 -1.6 0
-1.434 4.1669998 -1.602 0
-1.442 4.1469998 -1.595 0
-1.448 4.125 -1.5880001 0
-1.47 4.145 -1.598 0
-1.477 4.1440001 -1.599 0
-1.498 4.1609998 -1.608 0
-1.505 4.138 -1.6 0
-1.518 4.1350002 -1.601 0
-1.529 4.125 -1.599 0
-1.546 4.131 -1.603 0
-1.5549999 4.1160002 -1.599 0
-1.564 4.118 -1.601 0
-1.579 4.119 -1.603 0
-1.6 4.1360002 -1.613 0
-1.6059999 4.112 -1.605 0
-1.624 4.1209998 -1.6109999 0
-1.637 4.1160002 -1.6109999 0
-1.647 4.1020002 -1.607 0
-1.649 4.0890002 -1.603 0
-1.664 4.0910001 -1.6059999 0
-1.681 4.0939999 -1.609 0
-1.694 4.0910001 -1.61 0
-1.709 4.0890002 -1.6109999 0
-1.724 4.0879998 -1.614 0
-1.732 4.073 -1.609 0
-1.739 4.0700002 -1.609 0
-1.7539999 4.0710001 -1.612 0
-1.7589999 4.0469999 -1.604 0
-1.775 4.0500002 -1.608 0
-1.789 4.046 -1.608 0
-1.809 4.0570002 -1.6160001 0
-1.8200001 4.0479999 -1.614 0
-1.826 4.0440001 -1.614 0
-1.841 4.0430002 -1.6160001 0
-1.841 4.0100002 -1.604 0
-1.86 4.0180001 -1.61 0
-1.875 4.0170002 -1.612 0
-1.888 4.0110002 -1.612 0
-1.897 3.9990001 -1.609 0
-1.903 3.9960001 -1.609 0
-1.9220001 4.0029998 -1.615 0
-1.933 3.994 -1.614 0
-1.943 3.983 -1.6109999 0
-1.949 3.9630001 -1.6059999 0
-1.978 3.99 -1.62 0
-1.987 3.9760001 -1.6160001 0
-1.994 3.974 -1.617 0
-1.999 3.9549999 -1.6109999 0
-2.013 3.95 -1.612 0
-2.027 3.947 -1.614 0
-2.0439999 3.95 -1.618 0
-2.059 3.9489999 -1.62 0
-2.0669999 3.934 -1.6160001 0
-2.0829999 3.934 -1.619 0
-2.082 3.918 -1.614 0
-2.0910001 3.905 -1.6109999 0
-2.112 3.915 -1.618 0
-2.118 3.8959999 -1.613 0
-2.138 3.9030001 -1.619 0
-2.151 3.898 -1.619 0
-2.1630001 3.9059999 -1.624 0
-2.1719999 3.892 -1.622 0
-2.1800001 3.8770001 -1.618 0
-2.1919999 3.8710001 -1.618 0
-2.201 3.859 -1.6160001 0
-2.214 3.8540001 -1.6160001 0
-2.237 3.8640001 -1.624 0
-2.237 3.8510001 -1.62 0
-2.244 3.8340001 -1.6160001 0
-2.257 3.8310001 -1.617 0
-2.2690001 3.822 -1.6160001 0
-2.293 3.835 -1.626 0
-2.2980001 3.8169999 -1.6210001 0
-2.312 3.813 -1.622 0
-2.3139999 3.803 -1.619 0
-2.3340001 3.8080001 -1.625 0
-2.342 3.7950001 -1.622 0
-2.3499999 3.7809999 -1.619 0
-2.3640001 3.777 -1.6210001 0
-2.372 3.763 -1.618 0
-2.3929999 3.77 -1.624 0
-2.4189999 3.7839999 -1.635 0
-2.4119999 3.7609999 -1.626 0
-2.4419999 3.78 -1.638 0
-2.4489999 3.766 -1.635 0
-2.454 3.7479999 -1.63 0
-2.471 3.7479999 -1.6339999 0
-2.483 3.74 -1.6339999 0
-2.487 3.7349999 -1.633 0
-2.493 3.7179999 -1.6289999 0
-2.5109999 3.7190001 -1.633 0
-2.517 3.7030001 -1.63 0
-2.529 3.6949999 -1.63 0
-2.5510001 3.7030001 -1.637 0
-2.5550001 3.684 -1.632 0
-2.562 3.6819999 -1.632 0
-2.5799999 3.6830001 -1.637 0
-2.585 3.665 -1.632 0
-2.5929999 3.6530001 -1.63 0
-2.619 3.664 -1.64 0
-2.6199999 3.641 -1.632 0
-2.6370001 3.6400001 -1.636 0
-2.648 3.6440001 -1.64 0
-2.6570001 3.632 -1.638 0
-2.6719999 3.628 -1.64 0
-2.6800001 3.615 -1.638 0
-2.6830001 3.5969999 -1.633 0
-2.7 3.596 -1.637 0
-2.7190001 3.5969999 -1.642 0
-2.7309999 3.589 -1.642 0
-2.7309999 3.5769999 -1.638 0
-2.757 3.5880001 -1.648 0
-2.77 3.582 -1.649 0
-2.7880001 3.582 -1.654 0
-2.783 3.553 -1.643 0
-2.793 3.543 -1.643 0
-2.8039999 3.5439999 -1.646 0
-2.819 3.5409999 -1.648 0
-2.826 3.526 -1.646 0
-2.8380001 3.5190001 -1.646 0
-2.846 3.506 -1.6440001 0
-2.8510001 3.4890001 -1.64 0
-2.8629999 3.4820001 -1.641 0
-3.362 3.1949999 -1.692 0
-3.362 3.1849999 -1.689 0
-3.3740001 3.177 -1.691 0
-3.3659999 3.1500001 -1.681 0
-3.398 3.1589999 -1.693 0
-3.4070001 3.1470001 -1.692 0
-3.4170001 3.1370001 -1.692 0
-3.424 3.1229999 -1.691 0
-3.4230001 3.1129999 -1.688 0
-3.4330001 3.102 -1.688 0
-3.461 3.108 -1.697 0
-3.4690001 3.096 -1.696 0
-3.4619999 3.0699999 -1.688 0
-3.483 3.069 -1.694 0
-3.5020001 3.066 -1.699 0
-3.503 3.0569999 -1.696 0
-3.5139999 3.0469999 -1.697 0
-3.5209999 3.0339999 -1.696 0
-3.533 3.0250001 -1.697 0
-3.5369999 3.0090001 -1.694 0
-3.552 3.003 -1.697 0
-3.566 2.9949999 -1.699 0
-3.5829999 3 -1.706 0
-3.5780001 2.977 -1.699 0
-3.5880001 2.9660001 -1.699 0
-3.6140001 2.9690001 -1.707 0
-3.6099999 2.947 -1.701 0
-3.6400001 2.9519999 -1.711 0
-3.641 2.934 -1.707 0
-3.645 2.928 -1.707 0
-3.6559999 2.918 -1.707 0
-3.671 2.911 -1.71 0
-3.6789999 2.898 -1.71 0
-3.6930001 2.891 -1.712 0
-3.7060001 2.882 -1.714 0
-3.71 2.8670001 -1.712 0
-3.7219999 2.8659999 -1.715 0
-3.73 2.8529999 -1.715 0
-3.7349999 2.8399999 -1.7130001 0
-3.7490001 2.8310001 -1.715 0
-3.7609999 2.822 -1.717 0
-3.776 2.8139999 -1.72 0
-3.79 2.8069999 -1.723 0
-3.796 2.802 -1.723 0
-3.7980001 2.7839999 -1.72 0
-3.8080001 2.7739999 -1.72 0
-3.8210001 2.7650001 -1.723 0
-3.8239999 2.7479999 -1.72 0
-3.8469999 2.747 -1.727 0
-3.858 2.7360001 -1.728 0
-3.8629999 2.7309999 -1.728 0
-3.8740001 2.72 -1.729 0
-3.888 2.7119999 -1.732 0
-3.881 2.6889999 -1.725 0
-3.8970001 2.6819999 -1.728 0
-3.904 2.6689999 -1.728 0
-3.9100001 2.655 -1.726 0
-3.8889999 2.632 -1.715 0
-3.9159999 2.632 -1.723 0
-3.9319999 2.625 -1.727 0
-3.9419999 2.6140001 -1.728 0
-4.0009999 2.635 -1.752 0
-3.997 2.6140001 -1.7460001 0
-4.0149999 2.608 -1.75 0
-4.0500002 2.6210001 -1.765 0
-4.046 2.6010001 -1.7589999 0
-4.0159998 2.5639999 -1.742 0
-4.0339999 2.5569999 -1.7460001 0
-4.0310001 2.5380001 -1.7410001 0
-4.0310001 2.52 -1.737 0
-4.0510001 2.5150001 -1.743 0
-4.0419998 2.5009999 -1.737 0
-4.0630002 2.4960001 -1.743 0
-4.0640001 2.48 -1.74 0
-4.0669999 2.464 -1.738 0
-4.0539999 2.4389999 -1.728 0
-4.073 2.4330001 -1.734 0
-4.0999999 2.431 -1.742 0
-4.0939999 2.4189999 -1.738 0
-4.1129999 2.4130001 -1.743 0
-4.1129999 2.395 -1.739 0
-4.1230001 2.3840001 -1.7410001 0
-4.131 2.3710001 -1.7410001 0
-4.1420002 2.3599999 -1.742 0
-4.151 2.348 -1.743 0
-4.1459999 2.3369999 -1.739 0
-4.1620002 2.3280001 -1.743 0
-4.0229998 2.2349999 -1.678 0
-4.1880002 2.3080001 -1.748 0
-4.1440001 2.2679999 -1.726 0
-4.1810002 2.27 -1.739 0
-4.1890001 2.267 -1.7410001 0
-4.1999998 2.2550001 -1.742 0
-4.21 2.244 -1.744 0
-4.2090001 2.2260001 -1.74 0
-4.2140002 2.2119999 -1.739 0
-4.237 2.207 -1.747 0
-4.2360001 2.1900001 -1.743 0
-4.2509999 2.181 -1.747 0
-4.2509999 2.1719999 -1.745 0
-4.2449999 2.152 -1.739 0
-4.2519999 2.1389999 -1.739 0
-4.2649999 2.1289999 -1.742 0
-4.2880001 2.1240001 -1.75 0
-4.2919998 2.108 -1.748 0
-4.2930002 2.1010001 -1.747 0
-4.2880001 2.082 -1.742 0
-4.3049998 2.073 -1.747 0
-4.3080001 2.0580001 -1.745 0
-4.3260002 2.05 -1.75 0
-4.3049998 2.0239999 -1.739 0
-4.3390002 2.023 -1.75 0
-4.3559999 2.0220001 -1.756 0
-4.3499999 2.003 -1.751 0
-4.368 1.995 -1.756 0
-4.3639998 1.976 -1.752 0
-4.3790002 1.966 -1.755 0
-4.3920002 1.956 -1.758 0
-4.395 1.9400001 -1.757 0
-4.4050002 1.936 -1.76 0
-4.402 1.919 -1.756 0
-4.4180002 1.909 -1.76 0
-4.4229999 1.895 -1.76 0
-4.427 1.88 -1.7589999 0
-4.4499998 1.873 -1.766 0
-4.454 1.859 -1.765 0
-4.467 1.8559999 -1.77 0
-4.4889998 1.848 -1.776 0
-4.4749999 1.826 -1.768 0
-4.474 1.8099999 -1.765 0
-4.4499998 -2.132 -1.808 0
-4.4200001 -2.1340001 -1.7970001 0
-4.4070001 -2.145 -1.795 0
-4.4050002 -2.1530001 -1.795 0
-4.3860002 -2.161 -1.79 0
-4.368 -2.168 -1.785 0
-4.3779998 -2.191 -1.7920001 0
-4.3540001 -2.1960001 -1.785 0
-4.3610001 -2.2160001 -1.791 0
-4.3470001 -2.227 -1.788 0
-4.3390002 -2.2309999 -1.786 0
-4.3200002 -2.2379999 -1.781 0
-4.3239999 -2.2579999 -1.786 0
-4.3260002 -2.276 -1.789 0
-4.3150001 -2.2880001 -1.788 0
-4.3010001 -2.2980001 -1.785 0
-4.2909999 -2.3099999 -1.784 0
-4.2610002 -2.302 -1.772 0
-4.2620001 -2.3199999 -1.776 0
-4.25 -2.3310001 -1.773 0
-4.2420001 -2.3440001 -1.773 0
-4.2350001 -2.3570001 -1.773 0
-4.2490001 -2.382 -1.783 0
-4.2280002 -2.388 -1.777 0
-4.2340002 -2.401 -1.781 0
-4.2379999 -2.4200001 -1.7869999 0
-4.217 -2.4260001 -1.781 0
-4.2080002 -2.438 -1.78 0
-4.21 -2.457 -1.784 0
-4.2090001 -2.474 -1.7869999 0
-4.1989999 -2.487 -1.7869999 0
-4.1880002 -2.4979999 -1.785 0
-4.1890001 -2.507 -1.7869999 0
-4.1799998 -2.52 -1.7869999 0
-4.164 -2.5280001 -1.783 0
-4.1570001 -2.5420001 -1.784 0
-4.1420002 -2.55 -1.78 0
-4.118 -2.553 -1.773 0
-4.0879998 -2.5439999 -1.761 0
-3.9660001 -2.484 -1.7079999 0
-3.934 -2.4809999 -1.697 0
-3.9119999 -2.484 -1.691 0
-3.8889999 -2.4860001 -1.683 0
-3.859 -2.484 -1.673 0
-3.8169999 -2.474 -1.6569999 0
-3.802 -2.473 -1.652 0
-3.779 -2.4749999 -1.645 0
-3.763 -2.4809999 -1.641 0
-3.7390001 -2.4820001 -1.633 0
-3.7060001 -2.477 -1.622 0
-3.7030001 -2.4909999 -1.624 0
-3.6800001 -2.4920001 -1.6160001 0
-3.6670001 -2.4920001 -1.612 0
-3.645 -2.494 -1.6059999 0
-3.6340001 -2.503 -1.604 0
-3.612 -2.5050001 -1.598 0
-3.6059999 -2.517 -1.598 0
-3.5999999 -2.53 -1.599 0
-3.6029999 -2.5409999 -1.603 0
-3.6010001 -2.556 -1.6059999 0
-3.586 -2.562 -1.602 0
-3.5940001 -2.586 -1.61 0
-3.589 -2.599 -1.6109999 0
-3.579 -2.609 -1.6109999 0
-3.595 -2.638 -1.622 0
-3.586 -2.641 -1.62 0
-3.5840001 -2.6559999 -1.623 0
-3.576 -2.668 -1.623 0
-3.5929999 -2.698 -1.635 0
-3.586 -2.71 -1.636 0
-3.5899999 -2.7320001 -1.643 0
-3.579 -2.7409999 -1.641 0
-3.579 -2.7590001 -1.646 0
-3.582 -2.77 -1.649 0
-3.5810001 -2.7869999 -1.653 0
-3.29 -2.575 -1.512 0
-3.575 -2.819 -1.659 0
-3.572 -2.835 -1.6619999 0
-2.8959999 -2.3069999 -1.327 0
-2.9649999 -2.3710001 -1.363 0
-3.0339999 -2.4419999 -1.402 0
-2.895 -2.3440001 -1.336 0
-2.8099999 -2.289 -1.2970001 0
-2.77 -2.2709999 -1.28 0
-2.71 -2.2349999 -1.253 0
-2.6099999 -2.1659999 -1.206 0
-2.576 -2.1429999 -1.1900001 0
-2.536 -2.1229999 -1.173 0
-2.517 -2.1210001 -1.166 0
-2.503 -2.122 -1.163 0
-2.513 -2.145 -1.171 0
-2.533 -2.1760001 -1.1849999 0
-2.556 -2.21 -1.201 0
-2.5539999 -2.2149999 -1.201 0
-2.54 -2.217 -1.198 0
-2.5880001 -2.2739999 -1.227 0
-2.5369999 -2.243 -1.2029999 0
-2.4749999 -2.201 -1.174 0
-2.4649999 -2.2060001 -1.173 0
-2.421 -2.1800001 -1.153 0
-2.4230001 -2.1889999 -1.156 0
-2.4119999 -2.1919999 -1.154 0
-2.415 -2.2090001 -1.159 0
-2.4159999 -2.224 -1.163 0
-2.4030001 -2.227 -1.161 0
-2.381 -2.22 -1.153 0
-2.4100001 -2.2609999 -1.171 0
-2.4170001 -2.2750001 -1.177 0
-2.408 -2.2809999 -1.177 0
-2.3970001 -2.2850001 -1.174 0
-2.378 -2.2809999 -1.168 0
-2.3670001 -2.2839999 -1.166 0
-2.306 -2.2390001 -1.137 0
-2.29 -2.237 -1.131 0
-2.3010001 -2.2550001 -1.1390001 0
-2.3099999 -2.2780001 -1.148 0
-2.303 -2.286 -1.148 0
-2.2690001 -2.266 -1.1339999 0
-2.2019999 -2.2119999 -1.1 0
-2.1689999 -2.1919999 -1.086 0
-2.1819999 -2.2190001 -1.097 0
-2.1849999 -2.23 -1.1 0
-2.152 -2.2090001 -1.086 0
-2.1500001 -2.2219999 -1.089 0
-2.1830001 -2.27 -1.1109999 0
-2.1670001 -2.2679999 -1.1059999 0
-2.158 -2.273 -1.105 0
-2.161 -2.283 -1.109 0
-2.188 -2.3269999 -1.1289999 0
-2.1619999 -2.313 -1.118 0
-2.181 -2.349 -1.133 0
-2.1789999 -2.3610001 -1.136 0
-2.1800001 -2.378 -1.141 0
-2.1289999 -2.336 -1.115 0
-2.118 -2.3310001 -1.1109999 0
-2.125 -2.3540001 -1.12 0
-2.0969999 -2.3369999 -1.107 0
-2.0699999 -2.322 -1.096 0
-2.099 -2.3699999 -1.118 0
-2.0940001 -2.3800001 -1.119 0
-2.112 -2.4159999 -1.1339999 0
-2.122 -2.4349999 -1.142 0
-2.0910001 -2.414 -1.1289999 0
-2.0780001 -2.414 -1.125 0
-2.0999999 -2.4560001 -1.143 0
-2.076 -2.4430001 -1.133 0
-2.079 -2.4619999 -1.1390001 0
-2.0799999 -2.48 -1.145 0
-2.0550001 -2.457 -1.132 0
-2.0309999 -2.444 -1.122 0
-2.0280001 -2.4560001 -1.125 0
-2.026 -2.4690001 -1.1289999 0
-2.013 -2.4679999 -1.125 0
-1.985 -2.45 -1.113 0
-1.929 -2.8770001 -1.234 0
-1.9450001 -2.921 -1.251 0
-1.939 -2.9319999 -1.2539999 0
-1.9069999 -2.9030001 -1.238 0
-1.895 -2.905 -1.235 0
-1.899 -2.9200001 -1.2410001 0
-1.8890001 -2.9260001 -1.2410001 0
-1.864 -2.9070001 -1.23 0
-1.911 -3.003 -1.271 0
-1.87 -2.9560001 -1.247 0
-1.868 -2.9749999 -1.253 0
-1.844 -2.957 -1.242 0
-1.847 -2.973 -1.248 0
-1.84 -2.9820001 -1.249 0
-1.8200001 -2.97 -1.2410001 0
-1.817 -2.987 -1.2460001 0
-1.819 -3.0120001 -1.255 0
-1.803 -3.006 -1.25 0
-1.804 -3.029 -1.258 0
-1.857 -3.1300001 -1.302 0
-1.832 -3.1099999 -1.291 0
-1.825 -3.1210001 -1.293 0
-1.811 -3.1199999 -1.29 0
-1.8430001 -3.1989999 -1.323 0
-1.822 -3.1849999 -1.314 0
-1.813 -3.181 -1.311 0
-1.827 -3.2290001 -1.33 0
-1.904 -3.3929999 -1.4 0
-1.896 -3.404 -1.403 0
-1.892 -3.4230001 -1.408 0
-1.888 -3.441 -1.414 0
-1.793 -3.289 -1.344 0
-1.923 -3.5469999 -1.456 0
-1.853 -3.441 -1.4069999 0
-1.831 -3.425 -1.398 0
-1.748 -3.2920001 -1.337 0
-1.952 -3.7130001 -1.5190001 0
-1.918 -3.674 -1.499 0
-1.872 -3.6140001 -1.47 0
-1.8710001 -3.625 -1.474 0
-1.908 -3.727 -1.516 0
-1.9960001 -3.9319999 -1.603 0
-1.948 -3.868 -1.572 0
-1.9069999 -3.8139999 -1.546 0
-1.904 -3.8399999 -1.5549999 0
-1.7869999 -3.628 -1.46 0
-1.813 -3.7579999 -1.51 0
-1.767 -3.72 -1.489 0
-2.0079999 -4.2719998 -1.724 0
-1.584 -3.3840001 -1.34 0
-1.969 -4.2389998 -1.706 0
-1.579 -3.415 -1.35 0
-1.992 -4.3979998 -1.766 0
-1.929 -4.2940001 -1.719 0
-1.521 -3.401 -1.336 0
-1.503 -3.388 -1.329 0
-1.899 -4.3189998 -1.723 0
-1.6 -3.6589999 -1.4400001 0
-1.604 -3.7019999 -1.456 0
-1.5779999 -3.6719999 -1.442 0
-1.558 -3.6570001 -1.433 0
-1.459 -3.45 -1.344 0
-1.533 -3.645 -1.425 0
-1.807 -4.348 -1.72 0
-1.728 -4.1919999 -1.651 0
-1.809 -4.4320002 -1.75 0
-1.317 -3.267 -1.257 0
-1.29 -3.2290001 -1.239 0
-1.2869999 -3.2360001 -1.2410001 0
-1.752 -4.5149999 -1.772 0
-1.73 -4.5 -1.763 0
-1.726 -4.5310001 -1.774 0
-1.7029999 -4.5139999 -1.765 0
-1.684 -4.507 -1.76 0
-1.6799999 -4.5170002 -1.763 0
-1.663 -4.5149999 -1.76 0
-1.654 -4.5339999 -1.765 0
-1.64 -4.5409999 -1.766 0
-1.63 -4.5570002 -1.771 0
-1.617 -4.5669999 -1.773 0
-1.599 -4.5599999 -1.768 0
-1.5930001 -4.566 -1.7690001 0
-1.579 -4.573 -1.77 0
-1.538 -4.4980001 -1.737 0
-1.2180001 -3.6210001 -1.373 0
-1.221 -3.6670001 -1.39 0
-1.204 -3.6570001 -1.385 0
-1.497 -4.592 -1.767 0
-1.485 -4.6020002 -1.7690001 0
-1.469 -4.6009998 -1.767 0
-1.451 -4.5949998 -1.763 0
-1.446 -4.6300001 -1.775 0
-1.427 -4.6220002 -1.77 0
-1.41 -4.6160002 -1.765 0
-1.4069999 -4.632 -1.771 0
-1.393 -4.6399999 -1.773 0
-1.383 -4.6589999 -1.779 0
-1.362 -4.6440001 -1.771 0
-1.347 -4.6459999 -1.77 0
-1.337 -4.665 -1.776 0
-1.319 -4.6560001 -1.771 0
-1.3099999 -4.6529999 -1.768 0
-1.294 -4.652 -1.766 0
-1.2819999 -4.6669998 -1.771 0
-1.2640001 -4.658 -1.765 0
-1.2539999 -4.678 -1.772 0
-1.232 -4.6570001 -1.762 0
-1.226 -4.664 -1.7640001 0
-1.212 -4.6680002 -1.7640001 0
-1.2029999 -4.6950002 -1.773 0
-1.1849999 -4.684 -1.768 0
-1.168 -4.6789999 -1.7640001 0
-1.153 -4.6849999 -1.765 0
-1.141 -4.697 -1.768 0
-1.132 -4.6939998 -1.766 0
-1.12 -4.7080002 -1.771 0
-1.104 -4.7080002 -1.7690001 0
-1.09 -4.711 -1.7690001 0
-1.075 -4.717 -1.77 0
-1.061 -4.7220001 -1.771 0
-1.043 -4.7119999 -1.765 0
-1.035 -4.71 -1.7640001 0
-1.022 -4.724 -1.768 0
-1.008 -4.7280002 -1.768 0
-0.991 -4.723 -1.765 0
-0.97600001 -4.7270002 -1.765 0
-0.963 -4.737 -1.768 0
-0.94800001 -4.7399998 -1.768 0
-0.94 -4.7399998 -1.768 0
-0.92500001 -4.7410002 -1.767 0
-0.90700001 -4.7290001 -1.761 0
-0.89399999 -4.7410002 -1.765 0
-0.87699997 -4.7329998 -1.76 0
-0.86500001 -4.75 -1.766 0
-0.84899998 -4.744 -1.763 0
-0.84100002 -4.7470002 -1.763 0
-0.82700002 -4.7550001 -1.765 0
-0.81599998 -4.7779999 -1.773 0
-0.79799998 -4.7600002 -1.765 0
-0.78299999 -4.7680001 -1.768 0
-0.76599997 -4.756 -1.762 0
-0.76099998 -4.7729998 -1.768 0
-0.745 -4.7649999 -1.7640001 0
-0.72899997 -4.7649999 -1.763 0
-0.713 -4.7579999 -1.76 0
-0.699 -4.7659998 -1.762 0
-0.685 -4.777 -1.765 0
-0.66900003 -4.7719998 -1.763 0
-0.662 -4.777 -1.7640001 0
-0.64899999 -4.7919998 -1.7690001 0
-0.63200003 -4.777 -1.763 0
-0.61699998 -4.783 -1.7640001 0
-0.602 -4.7849998 -1.7640001 0
-0.58600003 -4.7810001 -1.762 0
-0.56999999 -4.7680001 -1.756 0
-0.565 -4.7930002 -1.765 0
-0.54699999 -4.7709999 -1.756 0
-0.53500003 -4.7979999 -1.766 0
-0.51999998 -4.796 -1.765 0
-0.50300002 -4.7789998 -1.758 0
-0.48699999 -4.7789998 -1.757 0
-0.47299999 -4.79 -1.76 0
-0.465 -4.7779999 -1.755 0
-0.45100001 -4.796 -1.762 0
-0.435 -4.7880001 -1.758 0
-0.41999999 -4.789 -1.758 0
-0.40599999 -4.802 -1.763 0
-0.391 -4.8049998 -1.763 0
-0.375 -4.7950001 -1.7589999 0
-0.366 -4.7789998 -1.752 0
-0.35299999 -4.802 -1.761 0
-0.338 -4.809 -1.763 0
-0.32300001 -4.8150001 -1.765 0
-0.308 -4.8150001 -1.765 0
-0.292 -4.7989998 -1.758 0
-0.285 -4.803 -1.76 0
-0.27000001 -4.8109999 -1.763 0
-0.25400001 -4.7989998 -1.758 0
-0.23999999 -4.8200002 -1.765 0
-0.22400001 -4.802 -1.758 0
-0.20900001 -4.8049998 -1.7589999 0
-0.19400001 -4.8169999 -1.763 0
-0.18700001 -4.823 -1.765 0
-0.17200001 -4.823 -1.765 0
-0.156 -4.8109999 -1.76 0
-0.141 -4.8080001 -1.7589999 0
-0.126 -4.8119998 -1.76 0
-0.111 -4.7989998 -1.755 0
-0.096000001 -4.7989998 -1.755 0
-0.088 -4.803 -1.757 0
-0.072999999 -4.803 -1.757 0
-0.057999998 -4.802 -1.756 0
-0.043000001 -4.8000002 -1.755 0
-0.028000001 -4.7909999 -1.752 0
-0.013 -4.8189998 -1.763 0
0.0020000001 -4.8080001 -1.758 0
0.0099999998 -4.8080001 -1.758 0
0.025 -4.8109999 -1.76 0
0.039999999 -4.8080001 -1.758 0
0.055 -4.8039999 -1.757 0
0.07 -4.8109999 -1.76 0
0.086000003 -4.8330002 -1.768 0
0.093000002 -4.8119998 -1.76 0
0.108 -4.8060002 -1.758 0
0.123 -4.7989998 -1.755 0
0.139 -4.822 -1.765 0
0.154 -4.8130002 -1.761 0
0.168 -4.7989998 -1.756 0
0.184 -4.8210001 -1.765 0
0.199 -4.822 -1.765 0
0.207 -4.8179998 -1.7640001 0
0.222 -4.8099999 -1.761 0
0.236 -4.796 -1.756 0
0.25099999 -4.79 -1.7539999 0
0.26699999 -4.8060002 -1.76 0
0.28200001 -4.8049998 -1.76 0
0.28999999 -4.8179998 -1.765 0
0.30500001 -4.8109999 -1.763 0
0.31799999 -4.7839999 -1.753 0
0.33399999 -4.796 -1.758 0
0.34900001 -4.7859998 -1.755 0
0.36500001 -4.7979999 -1.76 0
0.37799999 -4.7740002 -1.751 0
0.38499999 -4.77 -1.75 0
0.403 -4.802 -1.763 0
0.41600001 -4.777 -1.753 0
0.43099999 -4.7729998 -1.752 0
0.447 -4.7810001 -1.756 0
0.46200001 -4.7870002 -1.7589999 0
0.47600001 -4.7670002 -1.752 0
0.484 -4.7719998 -1.7539999 0
0.498 -4.7649999 -1.752 0
0.51300001 -4.763 -1.752 0
0.52899998 -4.7709999 -1.755 0
0.54400003 -4.7670002 -1.755 0
0.56 -4.7729998 -1.758 0
0.574 -4.7680001 -1.756 0
0.58200002 -4.7719998 -1.758 0
0.597 -4.7690001 -1.758 0
0.61199999 -4.763 -1.756 0
0.62599999 -4.7589998 -1.755 0
0.64200002 -4.7649999 -1.758 0
0.65499997 -4.7480001 -1.752 0
0.662 -4.743 -1.751 0
0.676 -4.7350001 -1.749 0
0.69 -4.73 -1.747 0
0.70700002 -4.7379999 -1.752 0
0.72299999 -4.744 -1.755 0
0.73799998 -4.743 -1.755 0
0.75300002 -4.737 -1.7539999 0
0.75700003 -4.7189999 -1.747 0
0.77499998 -4.7319999 -1.753 0
0.78899997 -4.7259998 -1.752 0
0.80500001 -4.7319999 -1.755 0
0.81999999 -4.7319999 -1.756 0
0.83399999 -4.7220001 -1.753 0
0.84299999 -4.6900001 -1.742 0
0.85699999 -4.723 -1.755 0
0.87099999 -4.7129998 -1.752 0
0.94999999 -4.724 -1.763 0
0.95700002 -4.7210002 -1.762 0
0.97600001 -4.7360001 -1.7690001 0
0.98199999 -4.6929998 -1.753 0
0.995 -4.6830001 -1.75 0
1.5549999 -2.3280001 -0.97399998 0
1.563 -2.309 -0.97000003 0
1.5599999 -2.29 -0.96399999 0
1.563 -2.279 -0.96100003 0
1.586 -2.296 -0.97100002 0
1.59 -2.286 -0.96899998 0
1.591 -2.28 -0.96700001 0
1.6109999 -2.2939999 -0.97600001 0
1.609 -2.2750001 -0.96899998 0
1.619 -2.2739999 -0.972 0
1.649 -2.3010001 -0.98699999 0
1.643 -2.2780001 -0.97799999 0
1.654 -2.277 -0.98000002 0
1.6670001 -2.2880001 -0.98699999 0
1.668 -2.2739999 -0.98199999 0
1.679 -2.2739999 -0.98500001 0
1.686 -2.2690001 -0.98500001 0
1.679 -2.2449999 -0.97600001 0
1.671 -2.22 -0.96600002 0
1.684 -2.2219999 -0.97000003 0
1.675 -2.2030001 -0.96200001 0
1.698 -2.2190001 -0.972 0
1.691 -2.1960001 -0.96399999 0
1.691 -2.1819999 -0.95899999 0
1.715 -2.198 -0.97000003 0
1.717 -2.187 -0.96700001 0
1.7130001 -2.174 -0.96200001 0
1.722 -2.1719999 -0.96399999 0
1.7309999 -2.1689999 -0.96499997 0
1.752 -2.181 -0.97399998 0
1.752 -2.1670001 -0.96899998 0
1.806 -2.2190001 -0.99800003 0
1.977 -2.4089999 -1.098 0
2.0469999 -2.4860001 -1.1390001 0
2.0650001 -2.4909999 -1.145 0
2.063 -2.473 -1.1390001 0
3.062 -3.6289999 -1.735 0
1.978 -2.3429999 -1.0779999 0
3.089 -3.6129999 -1.737 0
3.1140001 -3.619 -1.745 0
3.1070001 -3.5999999 -1.738 0
3.1259999 -3.599 -1.742 0
3.1329999 -3.585 -1.74 0
3.1470001 -3.5780001 -1.742 0
3.154 -3.5639999 -1.739 0
3.1659999 -3.5539999 -1.739 0
3.178 -3.5450001 -1.74 0
3.184 -3.54 -1.74 0
3.1960001 -3.5320001 -1.7410001 0
3.21 -3.5239999 -1.742 0
3.217 -3.51 -1.74 0
3.2349999 -3.5079999 -1.744 0
3.2409999 -3.4920001 -1.742 0
3.237 -3.4660001 -1.733 0
3.257 -3.4760001 -1.7410001 0
3.27 -3.4679999 -1.742 0
3.2720001 -3.4489999 -1.737 0
3.283 -3.438 -1.737 0
3.2969999 -3.4319999 -1.739 0
3.309 -3.4230001 -1.74 0
3.303 -3.4059999 -1.734 0
3.323 -3.405 -1.739 0
3.3239999 -3.385 -1.734 0
3.3280001 -3.368 -1.73 0
3.3469999 -3.365 -1.734 0
3.355 -3.352 -1.733 0
3.372 -3.348 -1.7359999 0
3.3629999 -3.3280001 -1.728 0
3.392 -3.336 -1.739 0
3.3929999 -3.316 -1.734 0
3.398 -3.3 -1.7309999 0
3.408 -3.29 -1.7309999 0
3.4159999 -3.276 -1.729 0
3.434 -3.273 -1.734 0
3.434 -3.263 -1.7309999 0
3.431 -3.2390001 -1.723 0
3.467 -3.253 -1.737 0
3.4649999 -3.23 -1.7309999 0
3.4860001 -3.23 -1.7359999 0
3.4779999 -3.2019999 -1.727 0
3.4879999 -3.2019999 -1.73 0
3.487 -3.181 -1.724 0
3.506 -3.177 -1.728 0
3.513 -3.164 -1.727 0
3.52 -3.1500001 -1.726 0
3.5610001 -3.1659999 -1.742 0
3.5280001 -3.118 -1.72 0
3.553 -3.1300001 -1.73 0
3.566 -3.1210001 -1.7309999 0
3.5799999 -3.1140001 -1.734 0
3.5780001 -3.0929999 -1.728 0
3.5880001 -3.0810001 -1.728 0
3.5829999 -3.0580001 -1.72 0
3.6170001 -3.0669999 -1.733 0
3.625 -3.0639999 -1.734 0
3.6099999 -3.0320001 -1.722 0
3.6240001 -3.0239999 -1.724 0
3.645 -3.023 -1.73 0
3.6370001 -2.997 -1.721 0
3.645 -2.984 -1.72 0
3.6659999 -2.9820001 -1.726 0
3.658 -2.9660001 -1.72 0
3.665 -2.9530001 -1.719 0
3.688 -2.9519999 -1.726 0
3.701 -2.944 -1.728 0
3.711 -2.9319999 -1.728 0
3.7290001 -2.928 -1.732 0
3.721 -2.9130001 -1.726 0
3.7349999 -2.904 -1.728 0
3.743 -2.891 -1.728 0
3.7320001 -2.865 -1.7180001 0
3.7709999 -2.8759999 -1.733 0
3.7820001 -2.865 -1.734 0
3.7739999 -2.8410001 -1.726 0
3.7739999 -2.832 -1.723 0
3.7880001 -2.823 -1.726 0
3.7920001 -2.8080001 -1.723 0
3.8010001 -2.796 -1.723 0
3.8050001 -2.7809999 -1.721 0
3.8150001 -2.77 -1.722 0
3.8410001 -2.77 -1.73 0
3.8559999 -2.7709999 -1.735 0
3.8410001 -2.743 -1.724 0
3.8529999 -2.733 -1.726 0
3.8629999 -2.7219999 -1.726 0
3.8659999 -2.7060001 -1.723 0
3.885 -2.701 -1.728 0
3.892 -2.687 -1.728 0
3.882 -2.6719999 -1.721 0
3.898 -2.665 -1.725 0
3.9059999 -2.6530001 -1.725 0
3.9189999 -2.6429999 -1.727 0
3.918 -2.625 -1.723 0
3.948 -2.6270001 -1.733 0
3.9319999 -2.598 -1.721 0
3.934 -2.5910001 -1.72 0
3.938 -2.576 -1.7180001 0
3.9579999 -2.5710001 -1.724 0
3.9619999 -2.556 -1.722 0
3.9890001 -2.5550001 -1.7309999 0
3.9849999 -2.536 -1.726 0
3.9909999 -2.5309999 -1.726 0
4.0040002 -2.5209999 -1.728 0
3.9990001 -2.5009999 -1.723 0
4.0019999 -2.4849999 -1.72 0
4.0300002 -2.4849999 -1.73 0
4.0180001 -2.46 -1.72 0
4.0409999 -2.457 -1.728 0
4.039 -2.447 -1.725 0
4.0500002 -2.4360001 -1.726 0
4.0560002 -2.4219999 -1.726 0
4.066 -2.411 -1.727 0
4.0760002 -2.4000001 -1.728 0
4.0749998 -2.382 -1.724 0
4.0710001 -2.3629999 -1.719 0
4.0749998 -2.3559999 -1.719 0
4.0970001 -2.352 -1.726 0
4.1040001 -2.339 -1.726 0
4.0949998 -2.3169999 -1.7180001 0
4.1300001 -2.319 -1.7309999 0
4.1329999 -2.3039999 -1.728 0
4.1329999 -2.2869999 -1.726 0
4.1430001 -2.2839999 -1.728 0
4.151 -2.2709999 -1.728 0
4.151 -2.2550001 -1.726 0
4.1599998 -2.2420001 -1.726 0
4.1550002 -2.223 -1.721 0
4.1690001 -2.214 -1.724 0
4.1680002 -2.1960001 -1.72 0
4.171 -2.1900001 -1.72 0
4.1810002 -2.178 -1.722 0
4.1880002 -2.165 -1.722 0
4.1900001 -2.1489999 -1.72 0
4.2080002 -2.142 -1.725 0
4.2199998 -2.131 -1.727 0
4.2319999 -2.1289999 -1.7309999 0
4.2160001 -2.105 -1.721 0
4.2280002 -2.0940001 -1.723 0
4.2329998 -2.0799999 -1.723 0
4.2480001 -2.0710001 -1.726 0
4.244 -2.053 -1.722 0
4.2490001 -2.0380001 -1.721 0
4.2449999 -2.029 -1.7180001 0
4.2649999 -2.0220001 -1.724 0
4.2729998 -2.0090001 -1.725 0
4.2979999 -2.0039999 -1.733 0
4.2909999 -1.984 -1.727 0
4.2839999 -1.965 -1.721 0
4.283 -1.948 -1.7180001 0
4.296 -1.946 -1.723 0
4.3109999 -1.936 -1.726 0
4.3080001 -1.919 -1.723 0
4.3179998 -1.9069999 -1.724 0
4.3309999 -1.896 -1.727 0
4.3189998 -1.875 -1.72 0
4.3270001 -1.863 -1.72 0
4.335 -1.858 -1.723 0
4.3270001 -1.839 -1.717 0
4.348 -1.831 -1.723 0
4.3400002 -1.812 -1.7180001 0
4.3340001 -1.793 -1.712 0
4.3530002 -1.785 -1.7180001 0
4.3579998 -1.779 -1.719 0
4.3720002 -1.7690001 -1.723 0
4.3520002 -1.745 -1.712 0
4.3920002 -1.745 -1.726 0
4.369 -1.72 -1.715 0
4.3889999 -1.712 -1.72 0
4.3779998 -1.692 -1.714 0
4.3860002 -1.687 -1.716 0
4.3990002 -1.676 -1.719 0
4.4000001 -1.661 -1.7180001 0
4.4060001 -1.647 -1.7180001 0
4.3340001 -1.605 -1.686 0
4.4180002 -1.62 -1.7180001 0
4.4050002 -1.6 -1.711 0
4.4060001 -1.592 -1.71 0
4.4299998 -1.585 -1.7180001 0
4.421 -1.566 -1.712 0
4.4450002 -1.559 -1.72 0
4.4569998 -1.548 -1.723 0
4.4359999 -1.525 -1.712 0
4.4429998 -1.52 -1.715 0
4.4299998 -1.5 -1.707 0
4.4460001 -1.489 -1.712 0
4.4720001 -1.482 -1.72 0
4.4759998 -1.4680001 -1.72 0
4.4899998 -1.457 -1.724 0
4.473 -1.436 -1.715 0
4.4860001 -1.432 -1.72 0
4.4619999 -1.409 -1.7079999 0
4.4770002 -1.399 -1.712 0
4.4970002 -1.39 -1.719 0
4.5 -1.375 -1.7180001 0
4.4850001 -1.355 -1.71 0
4.5120001 -1.348 -1.72 0
4.4980001 -1.336 -1.7130001 0
4.506 -1.323 -1.715 0
4.5079999 -1.308 -1.714 0
4.507 -1.2920001 -1.712 0
4.5250001 -1.2819999 -1.7180001 0
4.5310001 -1.268 -1.7180001 0
4.533 -1.2539999 -1.7180001 0
4.5279999 -1.245 -1.715 0
4.5300002 -1.23 -1.714 0
4.5359998 -1.216 -1.715 0
4.5339999 -1.201 -1.712 0
4.5500002 -1.1900001 -1.7180001 0
4.5669999 -1.178 -1.723 0
4.5469999 -1.158 -1.7130001 0
4.5630002 -1.155 -1.719 0
4.5580001 -1.138 -1.715 0
4.5669999 -1.125 -1.7180001 0
