# .PCD v0.7 - Point Cloud Data file format
VERSION 0.7
FIELDS x y z
SIZE 4 4 4
TYPE F F F
COUNT 1 1 1
WIDTH 1953
HEIGHT 1
VIEWPOINT 0 0 0 1 0 0 0
POINTS 1953
DATA ascii
-3.6600001 9.0200005 -1.88
-3.6800001 9.1400003 -1.91
-3.6400001 9.1499996 -1.9
-3.5999999 9.1199999 -1.9
-3.5699999 9.1800003 -1.9
-3.55 9.1899996 -1.91
-3.5 9.1899996 -1.9
-3.49 9.21 -1.91
-3.4300001 9.1800003 -1.89
-3.4100001 9.21 -1.91
-3.3699999 9.2299995 -1.9
-3.3499999 9.2299995 -1.9
-3.3099999 9.2799997 -1.9
-3.2 9.4200001 -1.9299999
-3.1300001 9.3400002 -1.9
-3.0999999 9.4399996 -1.9299999
-2.9200001 9.5100002 -1.92
-2.9200001 9.5600004 -1.9400001
-2.8599999 9.5299997 -1.92
-2.8399999 9.5600004 -1.9400001
-2.8199999 9.6400003 -1.9400001
-2.79 9.6099997 -1.9400001
-2.73 9.6000004 -1.9299999
-2.73 9.6700001 -1.95
-2.6700001 9.6400003 -1.9299999
-2.6500001 9.6599998 -1.9400001
-2.5999999 9.6599998 -1.9299999
-2.5799999 9.6499996 -1.9400001
-2.54 9.6800003 -1.9299999
-2.52 9.6999998 -1.9400001
-2.49 9.7299995 -1.9400001
-2.46 9.7399998 -1.95
-2.4200001 9.7399998 -1.9400001
-2.3800001 9.7399998 -1.95
-2.3599999 9.8000002 -1.95
-2.29 9.79 -1.95
-2.24 9.79 -1.9400001
-2.22 9.7700005 -1.9400001
-2.1700001 9.8000002 -1.9400001
-2.1500001 9.79 -1.9400001
-2.0999999 9.8100004 -1.9400001
-2.0799999 9.8100004 -1.95
-2.03 9.8199997 -1.9400001
-2.01 9.8199997 -1.9400001
-1.98 9.8500004 -1.9400001
-1.9400001 9.8299999 -1.9400001
-1.89 9.8500004 -1.9400001
-1.87 9.8500004 -1.9400001
-1.8200001 9.8500004 -1.9299999
-1.8 9.8500004 -1.9400001
-1.76 9.8400002 -1.9299999
-1.73 9.8299999 -1.9400001
-1.6799999 9.8299999 -1.92
-1.66 9.8199997 -1.9299999
-1.61 9.8199997 -1.92
-1.58 9.8199997 -1.9299999
-1.54 9.8100004 -1.92
-1.52 9.8299999 -1.9299999
-1.47 9.8199997 -1.92
-1.45 9.8400002 -1.9299999
-1.41 9.8400002 -1.92
-1.38 9.8599997 -1.9299999
-1.34 9.8699999 -1.92
-1.3099999 9.8599997 -1.9299999
-1.27 9.8500004 -1.92
-1.24 9.8900003 -1.9299999
-1.2 9.8599997 -1.92
-1.17 9.8800001 -1.9299999
-1.13 9.8800001 -1.92
-1.1 9.8900003 -1.9299999
-1.0599999 9.8900003 -1.92
-1.04 9.8999996 -1.9299999
-1 9.9300003 -1.9299999
-0.98000002 9.9200001 -1.9299999
-0.92000002 9.8999996 -1.92
-0.89999998 9.9200001 -1.9299999
-0.86000001 9.9300003 -1.92
-0.83999997 9.9300003 -1.9299999
-0.77999997 9.9200001 -1.92
-0.76999998 9.9300003 -1.9299999
-0.70999998 9.9200001 -1.92
-0.69999999 9.9499998 -1.9299999
-0.64999998 9.96 -1.9299999
-0.63 9.9300003 -1.9299999
-0.57999998 9.9300003 -1.92
-0.56 9.9399996 -1.9299999
-0.50999999 9.96 -1.92
-0.49000001 9.96 -1.9299999
-0.44 9.9399996 -1.92
-0.41999999 9.9399996 -1.9299999
-0.38 9.96 -1.92
-0.34999999 9.96 -1.9299999
-0.31 9.9499998 -1.92
-0.28 9.96 -1.9299999
-0.23999999 9.9700003 -1.9299999
-0.20999999 10 -1.9400001
-0.17 9.96 -1.92
-0.14 9.96 -1.9299999
-0.1 9.9499998 -1.92
-0.07 9.96 -1.9299999
-0.029999999 9.96 -1.92
0 9.9499998 -1.9299999
0.02 9.9899998 -1.9299999
0.050000001 9.9499998 -1.9299999
0.090000004 9.96 -1.92
0.12 9.96 -1.9299999
0.16 9.9499998 -1.92
0.19 9.9399996 -1.9299999
0.23 9.9499998 -1.92
0.25999999 9.9499998 -1.9299999
0.30000001 9.9399996 -1.92
0.33000001 9.9499998 -1.9299999
0.37 9.96 -1.92
0.40000001 9.9300003 -1.9299999
0.44 9.9300003 -1.92
0.47 9.9399996 -1.9299999
0.5 9.9399996 -1.92
0.54000002 9.9300003 -1.9299999
0.56999999 9.9300003 -1.92
0.61000001 9.9200001 -1.9299999
0.64999998 9.9099998 -1.92
0.68000001 9.8999996 -1.9299999
0.70999998 9.9099998 -1.92
0.75 9.8999996 -1.9299999
0.77999997 9.8999996 -1.92
0.81999999 9.8999996 -1.9299999
0.83999997 9.8800001 -1.91
0.88 9.8999996 -1.9299999
0.91000003 9.8900003 -1.92
0.94 9.8699999 -1.92
0.98000002 9.8800001 -1.92
1.02 9.8599997 -1.92
1.05 9.8599997 -1.91
1.08 9.8599997 -1.92
1.12 9.8500004 -1.91
1.15 9.8400002 -1.92
1.1900001 9.8500004 -1.92
1.22 9.8400002 -1.92
1.26 9.8199997 -1.91
1.29 9.8199997 -1.92
1.3200001 9.8000002 -1.91
1.35 9.79 -1.92
1.39 9.8000002 -1.91
1.42 9.7799997 -1.92
1.46 9.7700005 -1.91
1.49 9.75 -1.91
1.52 9.7299995 -1.9
1.55 9.75 -1.91
1.59 9.7200003 -1.9
1.62 9.7299995 -1.91
1.65 9.7299995 -1.9
1.6900001 9.7200003 -1.91
1.72 9.7200003 -1.9
1.76 9.7200003 -1.92
1.78 9.6800003 -1.9
1.8200001 9.6700001 -1.91
1.85 9.6899996 -1.9
1.9 9.6899996 -1.92
1.92 9.6499996 -1.9
1.96 9.6499996 -1.91
1.99 9.6800003 -1.91
2.02 9.6300001 -1.91
2.0599999 9.6499996 -1.9
2.0899999 9.6000004 -1.91
2.1199999 9.6000004 -1.9
2.1600001 9.6000004 -1.91
2.1900001 9.5900002 -1.9
2.23 9.5900002 -1.91
2.25 9.5600004 -1.9
2.29 9.5600004 -1.91
2.3199999 9.5500002 -1.9
2.3499999 9.5 -1.9
2.3900001 9.54 -1.9
2.4200001 9.5500002 -1.91
2.45 9.5200005 -1.9
2.48 9.4899998 -1.9
2.53 9.5200005 -1.9
2.55 9.5200005 -1.91
2.5699999 9.4399996 -1.89
2.5999999 9.4399996 -1.9
2.6300001 9.3699999 -1.88
2.6700001 9.4099998 -1.9
2.71 9.4099998 -1.89
2.75 9.46 -1.91
2.77 9.3999996 -1.89
2.8 9.3699999 -1.9
2.8199999 9.3199997 -1.88
2.8599999 9.3400002 -1.9
2.8800001 9.3100004 -1.88
2.9200001 9.2799997 -1.89
2.96 9.3199997 -1.89
2.99 9.3000002 -1.9
3.02 9.2799997 -1.88
3.0599999 9.29 -1.9
3.1700001 9.1800003 -1.87
3.2 9.1700001 -1.88
3.23 9.1599998 -1.87
3.26 9.1400003 -1.88
3.27 9.0699997 -1.86
3.3099999 9.0799999 -1.88
3.3699999 9.04 -1.86
3.4000001 9.04 -1.87
3.4300001 9.0200005 -1.86
3.46 9.0200005 -1.87
3.1500001 7.8800001 -1.64
3.6300001 8.8900003 -1.86
3.71 8.9200001 -1.86
4.0599999 8.5500002 -1.84
4.0999999 8.5600004 -1.83
4.1199999 8.5200005 -1.84
4.1500001 8.5200005 -1.83
4.1799998 8.5 -1.84
4.1900001 8.46 -1.8200001
4.25 8.4799995 -1.84
4.27 8.4700003 -1.83
4.21 8.2799997 -1.8
4.3099999 8.3800001 -1.8200001
4.3200002 8.3599997 -1.83
4.3299999 8.29 -1.8
4.3699999 8.3000002 -1.8200001
4.4400001 8.2200003 -1.8
4.48 8.2200003 -1.8200001
4.5 8.1999998 -1.8
4.52 8.1599998 -1.8099999
4.5500002 8.1400003 -1.8
4.5700002 8.1300001 -1.8099999
4.5999999 8.1000004 -1.8
4.6300001 8.1000004 -1.8099999
4.6599998 8.1000004 -1.8
4.6900001 8.0699997 -1.8099999
4.6999998 8.04 -1.8
4.7399998 8.0200005 -1.8099999
4.7600002 8.0100002 -1.8
4.79 7.98 -1.8099999
4.8099999 7.96 -1.8
4.8400002 7.9499998 -1.8099999
4.8600001 7.9099998 -1.79
4.8899999 7.9000001 -1.8
4.9200001 7.8899999 -1.79
4.9400001 7.8499999 -1.8
4.96 7.8299999 -1.79
4.98 7.8000002 -1.8
5.0100002 7.8000002 -1.79
5.0500002 7.7800002 -1.8
5.0599999 7.75 -1.79
5.0799999 7.7199998 -1.79
5.1100001 7.6999998 -1.78
5.1300001 7.6799998 -1.79
5.1799998 7.6900001 -1.79
5.1900001 7.6599998 -1.8
5.23 7.6599998 -1.79
5.25 7.6300001 -1.8
5.27 7.5999999 -1.78
5.2800002 7.5599999 -1.79
5.3099999 7.5500002 -1.78
5.3200002 7.5100002 -1.79
5.3699999 7.5100002 -1.78
5.4099998 7.52 -1.8
5.4499998 7.4699998 -1.78
5.4499998 7.4200001 -1.79
5.4899998 7.4099998 -1.78
5.4899998 7.3699999 -1.78
5.54 7.3800001 -1.78
5.54 7.3200002 -1.78
5.5599999 7.3099999 -1.77
5.5900002 7.2800002 -1.78
5.5999999 7.25 -1.77
5.6399999 7.25 -1.78
5.6599998 7.21 -1.77
5.6700001 7.1799998 -1.77
5.6999998 7.1599998 -1.76
5.73 7.1500001 -1.78
5.75 7.1300001 -1.77
5.77 7.0999999 -1.77
5.79 7.0799999 -1.76
5.8099999 7.0500002 -1.77
5.8400002 7.0300002 -1.76
5.8600001 7.02 -1.77
5.8800001 6.98 -1.76
5.9000001 6.96 -1.77
5.9299998 6.9400001 -1.76
5.9400001 6.9200001 -1.77
5.98 6.9099998 -1.76
5.98 6.8499999 -1.76
6 6.8299999 -1.75
6.0100002 6.8099999 -1.76
6.0500002 6.79 -1.75
6.0599999 6.7600002 -1.76
6.0900002 6.7399998 -1.75
6.0999999 6.7199998 -1.76
6.1199999 6.6900001 -1.75
6.1500001 6.6700001 -1.76
6.1799998 6.6500001 -1.75
6.1799998 6.6199999 -1.76
6.1999998 6.5900002 -1.75
6.2199998 6.5599999 -1.75
6.2399998 6.54 -1.74
6.27 6.5300002 -1.76
6.2800002 6.4899998 -1.74
6.29 6.46 -1.75
6.3099999 6.4400001 -1.74
6.3400002 6.4200001 -1.75
6.3600001 6.4000001 -1.74
6.3899999 6.3699999 -1.75
6.3899999 6.3400002 -1.74
6.4200001 6.3099999 -1.75
6.4299998 6.29 -1.73
6.46 6.27 -1.75
6.4699998 6.2399998 -1.73
6.4899998 6.2199998 -1.74
6.5100002 6.1900001 -1.73
6.52 6.1700001 -1.74
6.5500002 6.1399999 -1.73
6.5599999 6.1100001 -1.74
6.5799999 6.0900002 -1.73
6.5900002 6.0599999 -1.74
6.6300001 6.04 -1.73
6.6399999 6.0100002 -1.74
6.6700001 5.9899998 -1.73
6.6799998 5.9699998 -1.74
6.71 5.9400001 -1.73
6.71 5.9099998 -1.74
6.75 5.8899999 -1.73
6.7399998 5.8600001 -1.73
6.7800002 5.8600001 -1.73
6.8099999 5.8299999 -1.74
6.8000002 5.79 -1.72
6.8200002 5.7600002 -1.73
6.8499999 5.75 -1.72
6.8800001 5.7199998 -1.74
6.8899999 5.6999998 -1.72
6.9200001 5.6799998 -1.74
6.9299998 5.6500001 -1.73
6.96 5.6300001 -1.74
7.0100002 5.6300001 -1.73
6.9899998 5.5700002 -1.73
7 5.5500002 -1.72
7.0100002 5.5100002 -1.73
7.02 5.48 -1.72
7 5.4299998 -1.72
7.0300002 5.4099998 -1.71
7.0500002 5.4000001 -1.72
7.0700002 5.3600001 -1.71
7.0799999 5.3299999 -1.72
7.0999999 5.3099999 -1.71
7.1100001 5.2800002 -1.72
7.1199999 5.25 -1.71
7.1500001 5.2399998 -1.72
7.1599998 5.1999998 -1.71
7.1599998 5.1599998 -1.71
7.1799998 5.1399999 -1.7
7.1900001 5.1199999 -1.71
7.2199998 5.0900002 -1.7
7.23 5.0599999 -1.71
7.23 5.02 -1.7
7.25 5 -1.71
7.2800002 4.98 -1.7
7.2800002 4.9499998 -1.71
7.29 4.9200001 -1.7
7.3099999 4.8899999 -1.71
7.3200002 4.8699999 -1.7
7.3299999 4.8299999 -1.7
7.3499999 4.8200002 -1.6900001
7.3699999 4.7800002 -1.7
7.3699999 4.75 -1.6900001
7.4000001 4.73 -1.7
7.3899999 4.6999998 -1.6900001
7.4200001 4.6700001 -1.7
7.4200001 4.6399999 -1.6900001
7.4400001 4.6100001 -1.7
7.4400001 4.5799999 -1.6900001
7.4699998 4.5599999 -1.7
7.48 4.5300002 -1.6900001
7.4699998 4.5 -1.6900001
7.5100002 4.48 -1.6900001
7.5 4.4400001 -1.6900001
7.54 4.4299998 -1.6900001
7.5300002 4.3899999 -1.6900001
7.54 4.3600001 -1.6799999
7.54 4.3299999 -1.6900001
7.5599999 4.3000002 -1.6799999
7.5799999 4.2800002 -1.6900001
7.5999999 4.2600002 -1.6799999
7.5900002 4.21 -1.6799999
7.6199999 4.1999998 -1.6799999
7.6100001 4.1599998 -1.6799999
7.6399999 4.1500001 -1.6799999
7.6500001 4.1100001 -1.6799999
7.6500001 4.0799999 -1.67
7.6700001 4.0500002 -1.6799999
7.6700001 4.02 -1.67
7.6999998 4 -1.6799999
7.71 3.97 -1.67
7.7199998 3.9400001 -1.6799999
7.75 3.9300001 -1.67
7.7399998 3.8800001 -1.6799999
7.75 3.8599999 -1.67
7.7800002 3.8299999 -1.6799999
7.7600002 3.79 -1.66
7.7600002 3.77 -1.67
7.77 3.73 -1.66
7.8000002 3.72 -1.6799999
7.8099999 3.6900001 -1.67
7.8200002 3.6600001 -1.67
7.8200002 3.6300001 -1.66
7.8499999 3.6099999 -1.6799999
7.8299999 3.5699999 -1.66
7.8800001 3.55 -1.6799999
7.8499999 3.5 -1.66
7.8800001 3.49 -1.67
7.8699999 3.46 -1.66
7.9099998 3.4400001 -1.67
7.9099998 3.4100001 -1.66
7.9200001 3.3800001 -1.67
8.0299997 3.29 -1.67
8.04 3.27 -1.6799999
8.0100002 3.22 -1.66
8.0600004 3.21 -1.6799999
8.0100002 3.1600001 -1.66
8.0100002 3.1199999 -1.67
8.04 3.0999999 -1.66
8.0500002 3.0699999 -1.67
8.1199999 3.0699999 -1.67
8.0799999 3.02 -1.67
8.0799999 2.99 -1.66
8.0699997 2.95 -1.67
8.04 2.9200001 -1.65
8.0500002 2.8800001 -1.66
8.0699997 2.8599999 -1.65
7.8200002 2.74 -1.61
8.0699997 2.8 -1.65
8.0600004 2.76 -1.65
8.1000004 2.75 -1.65
8.1000004 2.72 -1.66
8.1099997 2.6800001 -1.65
8.1000004 2.6600001 -1.65
8.1300001 2.6300001 -1.65
8.1300001 2.5999999 -1.66
8.1199999 2.5599999 -1.64
8.1099997 2.53 -1.65
8.1300001 2.5 -1.64
8.1300001 2.48 -1.65
8.1400003 2.45 -1.64
8.1800003 2.4300001 -1.65
8.1599998 2.3900001 -1.64
8.1700001 2.3699999 -1.65
8.1700001 2.3299999 -1.64
8.1800003 2.3099999 -1.65
8.1800003 2.28 -1.64
8.1999998 2.25 -1.65
8.1499996 2.21 -1.63
8.1999998 2.1900001 -1.65
8.21 2.1700001 -1.64
8.21 2.1300001 -1.65
8.2299995 2.1099999 -1.64
7.96 2.01 -1.59
8.2299995 2.05 -1.64
8.2399998 2.01 -1.65
8.25 1.99 -1.64
8.25 1.96 -1.65
8.2299995 1.92 -1.63
8.2700005 1.9 -1.65
8.2700005 1.87 -1.64
8.25 1.83 -1.64
8.29 1.8200001 -1.64
8.3199997 1.64 -1.65
8.3400002 1.5599999 -1.64
8.3000002 1.3099999 -1.63
8.2700005 1.28 -1.61
8.2600002 1.25 -1.62
8.2700005 1.22 -1.61
8.25 1.1799999 -1.62
8.2700005 1.16 -1.61
8.2700005 1.14 -1.62
8.2600002 1.1 -1.61
8.2799997 1.08 -1.62
8.29 1.05 -1.61
8.3000002 1.02 -1.62
8.2799997 0.99000001 -1.61
8.2799997 0.95999998 -1.62
8.3000002 0.93000001 -1.61
8.29 0.89999998 -1.62
8.2799997 0.87 -1.6
8.2700005 0.83999997 -1.61
8.29 0.81 -1.61
8.2799997 0.79000002 -1.61
8.2799997 0.75 -1.6
8.29 0.73000002 -1.61
8.2799997 0.69 -1.6
8.2799997 0.67000002 -1.61
8.29 0.63999999 -1.6
8.3000002 0.61000001 -1.61
8.29 0.58999997 -1.6
8.2799997 0.55000001 -1.61
8.29 0.52999997 -1.6
8.2799997 0.49000001 -1.61
8.2700005 0.47 -1.6
8.2700005 0.44 -1.61
8.3000002 0.41 -1.6
8.29 0.38 -1.61
8.2799997 0.34999999 -1.6
8.29 0.31999999 -1.61
8.2799997 0.30000001 -1.6
8.2700005 0.25999999 -1.6
8.2799997 0.23999999 -1.6
8.3000002 0.20999999 -1.61
8.3199997 0.18000001 -1.6
8.29 0.1 -1.61
10.05 -0.47 -1.58
10.04 -0.68000001 -1.59
9.9899998 -0.70999998 -1.5700001
10.03 -0.75999999 -1.59
10.01 -0.77999997 -1.58
9.9799995 -0.81999999 -1.58
10 -0.85000002 -1.58
10 -0.88999999 -1.59
9.9899998 -0.92000002 -1.5700001
10 -0.95999998 -1.59
9.9700003 -0.99000001 -1.5700001
9.9499998 -1.02 -1.58
9.9499998 -1.05 -1.5700001
9.9899998 -1.1 -1.59
9.9799995 -1.13 -1.58
9.9899998 -1.17 -1.59
9.9099998 -1.22 -1.5700001
9.9799995 -1.28 -1.59
9.8800001 -1.29 -1.5599999
9.9099998 -1.33 -1.58
9.6899996 -2.3099999 -1.5599999
9.6700001 -2.3800001 -1.5700001
9.6700001 -2.4000001 -1.5599999
9.6599998 -2.45 -1.5700001
9.6000004 -2.46 -1.5599999
9.5699997 -2.5 -1.5599999
9.54 -2.51 -1.55
9.5100002 -2.5599999 -1.5599999
9.4700003 -2.5699999 -1.54
9.46 -2.6199999 -1.55
9.5 -2.6500001 -1.55
9.4899998 -2.6900001 -1.5599999
9.4399996 -2.7 -1.54
9.3100004 -2.7 -1.53
9.3900003 -2.76 -1.54
9.3999996 -2.8 -1.55
9.3500004 -2.8199999 -1.53
9.3400002 -2.8599999 -1.54
9.3299999 -2.8800001 -1.53
9.29 -2.9100001 -1.54
9.3299999 -2.96 -1.54
9.3000002 -2.99 -1.54
9.29 -3.01 -1.53
9.3199997 -3.0599999 -1.55
9.3599997 -3.0999999 -1.55
9.3299999 -3.21 -1.5599999
9.3000002 -3.27 -1.55
9.25 -3.29 -1.55
9.1400003 -3.28 -1.52
9.0600004 -3.3099999 -1.52
8.9899998 -3.3 -1.5
8.9399996 -3.3199999 -1.51
8.9099998 -3.3399999 -1.49
8.8299999 -3.3499999 -1.49
8.7700005 -3.3599999 -1.47
8.7200003 -3.3800001 -1.48
8.6499996 -3.3800001 -1.46
8.6000004 -3.4000001 -1.46
8.5500002 -3.4100001 -1.4400001
8.46 -3.4200001 -1.4400001
8.3999996 -3.4200001 -1.42
8.3599997 -3.45 -1.4299999
8.3400002 -3.45 -1.42
8.3199997 -3.49 -1.42
8.2200003 -3.47 -1.4
8.1700001 -3.5 -1.4
8.1700001 -3.52 -1.4
8.1199999 -3.55 -1.4
8.1700001 -3.5899999 -1.4
8.3800001 -4.1900001 -1.48
8.3699999 -4.21 -1.47
8.2799997 -4.21 -1.47
8.1899996 -4.1900001 -1.4400001
8.1700001 -4.23 -1.45
8.1599998 -4.25 -1.4400001
8.1199999 -4.27 -1.45
8.1099997 -4.29 -1.4400001
8.0900002 -4.3299999 -1.45
8.0799999 -4.3499999 -1.4400001
8 -4.3499999 -1.4400001
8 -4.3800001 -1.4299999
7.9299998 -4.3800001 -1.4299999
7.9299998 -4.4099998 -1.42
7.8699999 -4.4200001 -1.4299999
7.9000001 -4.4699998 -1.42
7.8000002 -4.4499998 -1.42
7.7800002 -4.4699998 -1.41
7.8000002 -4.5300002 -1.42
7.75 -4.5300002 -1.41
7.73 -4.5599999 -1.42
7.6799998 -4.5599999 -1.4
7.6500001 -4.5900002 -1.41
7.6399999 -4.5999999 -1.4
7.5999999 -4.6199999 -1.4
7.5700002 -4.6300001 -1.39
7.52 -4.6500001 -1.4
7.5300002 -4.6799998 -1.39
7.48 -4.6999998 -1.4
7.4400001 -4.6999998 -1.38
7.4299998 -4.7399998 -1.39
7.4000001 -4.7399998 -1.38
7.3699999 -4.77 -1.39
7.3600001 -4.79 -1.38
7.3200002 -4.8200002 -1.38
7.3000002 -4.8200002 -1.37
7.27 -4.8600001 -1.38
7.23 -4.8499999 -1.37
7.21 -4.8899999 -1.38
7.1999998 -4.9000001 -1.37
7.1799998 -4.9299998 -1.38
7.1500001 -4.9499998 -1.36
7.1100001 -4.9699998 -1.37
7.0999999 -4.98 -1.36
7.0999999 -5.02 -1.37
7.0500002 -5.02 -1.36
7.0100002 -5.0300002 -1.36
7 -5.0599999 -1.35
6.98 -5.0799999 -1.36
6.9499998 -5.0999999 -1.35
6.9400001 -5.1300001 -1.36
6.9099998 -5.1500001 -1.35
6.9099998 -5.1900001 -1.36
6.8699999 -5.1900001 -1.35
6.8299999 -5.1999998 -1.36
6.8099999 -5.21 -1.35
6.79 -5.25 -1.36
6.7800002 -5.2600002 -1.35
6.7399998 -5.2800002 -1.35
6.6999998 -5.27 -1.34
6.6700001 -5.3099999 -1.35
6.6799998 -5.3400002 -1.34
6.6100001 -5.3299999 -1.34
6.5900002 -5.3400002 -1.33
6.5700002 -5.3699999 -1.34
6.5599999 -5.3899999 -1.33
6.5300002 -5.4200001 -1.34
6.48 -5.4099998 -1.3200001
6.4499998 -5.4299998 -1.33
6.4400001 -5.4400001 -1.3200001
6.4099998 -5.4699998 -1.33
6.4000001 -5.4899998 -1.3200001
6.3699999 -5.5100002 -1.33
6.3299999 -5.5100002 -1.3200001
6.3299999 -5.5500002 -1.33
6.3099999 -5.5700002 -1.3200001
6.2800002 -5.5900002 -1.33
6.2399998 -5.5900002 -1.3099999
6.23 -5.6199999 -1.3200001
6.1900001 -5.6199999 -1.3099999
6.1599998 -5.6399999 -1.3200001
6.1300001 -5.6399999 -1.3099999
6.1199999 -5.6799998 -1.3200001
6.0999999 -5.6900001 -1.3099999
6.0599999 -5.6999998 -1.3099999
6.0300002 -5.71 -1.3
6.02 -5.7399998 -1.3099999
5.9699998 -5.7399998 -1.3
5.9699998 -5.77 -1.3099999
5.8699999 -5.7800002 -1.29
5.8499999 -5.8200002 -1.3
5.8200002 -5.8099999 -1.29
5.79 -5.8400002 -1.3
5.75 -5.8200002 -1.28
5.75 -5.8899999 -1.3
5.7199998 -5.8800001 -1.29
5.6799998 -5.9000001 -1.29
5.6500001 -5.8899999 -1.28
5.6199999 -5.9200001 -1.29
5.5999999 -5.9200001 -1.28
5.5799999 -5.9499998 -1.29
5.5500002 -5.9499998 -1.28
5.52 -5.96 -1.28
5.4699998 -5.9499998 -1.27
5.46 -5.9899998 -1.28
5.4499998 -6.0100002 -1.27
5.4299998 -6.0300002 -1.28
5.3800001 -6.02 -1.27
5.3600001 -6.04 -1.28
5.3299999 -6.0500002 -1.26
5.3299999 -6.0900002 -1.28
5.2800002 -6.0700002 -1.26
5.27 -6.1100001 -1.27
5.23 -6.1100001 -1.26
5.1999998 -6.1199999 -1.27
5.1799998 -6.1300001 -1.26
5.1500001 -6.1500001 -1.27
5.1300001 -6.1599998 -1.26
5.1199999 -6.1900001 -1.27
5.0799999 -6.1799998 -1.25
5.0700002 -6.2199998 -1.27
5.0300002 -6.21 -1.25
5.0100002 -6.2399998 -1.26
4.9699998 -6.23 -1.25
4.96 -6.27 -1.26
4.9200001 -6.2399998 -1.25
4.8899999 -6.27 -1.26
4.8800001 -6.2800002 -1.25
4.8499999 -6.3099999 -1.26
4.8400002 -6.3200002 -1.25
4.79 -6.3200002 -1.25
4.79 -6.3400002 -1.25
4.75 -6.3499999 -1.25
4.7399998 -6.3699999 -1.25
4.71 -6.4000001 -1.25
4.6999998 -6.4099998 -1.25
4.6500001 -6.3899999 -1.25
4.6300001 -6.4099998 -1.24
4.5900002 -6.4200001 -1.25
4.5599999 -6.4099998 -1.23
4.5599999 -6.4499998 -1.25
4.5100002 -6.4299998 -1.23
4.5100002 -6.4899998 -1.25
4.4699998 -6.4699998 -1.23
4.4400001 -6.4899998 -1.24
4.4200001 -6.5 -1.23
4.3800001 -6.4899998 -1.24
4.3600001 -6.5 -1.23
4.3400002 -6.5300002 -1.24
4.3200002 -6.54 -1.23
4.29 -6.5599999 -1.24
4.2600002 -6.5500002 -1.22
4.25 -6.5900002 -1.24
4.2199998 -6.5999999 -1.23
4.1999998 -6.6199999 -1.24
4.1700001 -6.5999999 -1.22
4.1500001 -6.6500001 -1.24
4.1100001 -6.6100001 -1.22
4.0799999 -6.6399999 -1.23
4.0700002 -6.6500001 -1.22
4.04 -6.6700001 -1.23
4.0100002 -6.6500001 -1.22
3.97 -6.6599998 -1.22
3.96 -6.6799998 -1.22
3.9400001 -6.7199998 -1.23
3.9100001 -6.71 -1.22
3.8699999 -6.71 -1.22
3.8499999 -6.71 -1.21
3.8399999 -6.77 -1.23
3.8199999 -6.7600002 -1.22
3.79 -6.79 -1.23
3.77 -6.7800002 -1.22
3.73 -6.7800002 -1.22
3.71 -6.8000002 -1.21
3.6900001 -6.8200002 -1.22
3.6500001 -6.79 -1.21
3.6199999 -6.8000002 -1.22
3.6099999 -6.8299999 -1.21
3.5899999 -6.8600001 -1.22
3.55 -6.8299999 -1.21
3.53 -6.8499999 -1.22
3.5 -6.8499999 -1.2
3.49 -6.8899999 -1.22
3.4400001 -6.8600001 -1.2
3.4200001 -6.8800001 -1.21
3.3900001 -6.8899999 -1.2
3.3599999 -6.8800001 -1.21
3.3399999 -6.9000001 -1.2
3.3099999 -6.8899999 -1.21
3.29 -6.9200001 -1.2
3.28 -6.9499998 -1.21
3.24 -6.9400001 -1.2
3.22 -6.9499998 -1.21
3.2 -6.9699998 -1.2
3.1700001 -6.9699998 -1.21
3.1400001 -6.9699998 -1.2
3.1199999 -6.9899998 -1.21
3.0899999 -6.98 -1.2
3.0599999 -7 -1.21
3.04 -7 -1.2
3.02 -7.0300002 -1.21
2.99 -7.02 -1.2
2.97 -7.0300002 -1.2
2.9400001 -7.04 -1.2
2.9200001 -7.0500002 -1.2
2.8900001 -7.04 -1.1900001
2.8699999 -7.0700002 -1.2
2.8299999 -7.0599999 -1.1900001
2.8099999 -7.0799999 -1.2
2.79 -7.0999999 -1.2
2.76 -7.1100001 -1.2
2.74 -7.0999999 -1.1900001
2.72 -7.1300001 -1.2
2.6900001 -7.1300001 -1.1900001
2.6700001 -7.1399999 -1.2
2.6300001 -7.1300001 -1.1900001
2.6099999 -7.1399999 -1.2
2.5799999 -7.1399999 -1.1900001
2.55 -7.1399999 -1.2
2.53 -7.1599998 -1.1900001
2.5 -7.1599998 -1.2
2.4200001 -7.1599998 -1.1799999
2.4100001 -7.21 -1.2
2.3699999 -7.1900001 -1.1900001
2.3499999 -7.1999998 -1.1900001
2.3299999 -7.1999998 -1.1900001
2.3099999 -7.2399998 -1.2
2.28 -7.25 -1.1900001
2.25 -7.2399998 -1.2
2.23 -7.2399998 -1.1900001
2.2 -7.27 -1.2
2.1800001 -7.27 -1.1900001
2.1500001 -7.29 -1.2
2.1300001 -7.27 -1.1900001
2.0999999 -7.29 -1.2
2.0699999 -7.2800002 -1.1900001
2.05 -7.3000002 -1.2
2.02 -7.3000002 -1.1900001
1.99 -7.3000002 -1.1900001
1.97 -7.3000002 -1.1900001
1.9400001 -7.3000002 -1.1900001
1.92 -7.3099999 -1.1799999
1.89 -7.3400002 -1.2
1.87 -7.3200002 -1.1799999
1.83 -7.3299999 -1.1900001
1.8099999 -7.3299999 -1.1799999
1.79 -7.3499999 -1.1900001
1.76 -7.3499999 -1.1799999
1.74 -7.3600001 -1.1900001
1.71 -7.3299999 -1.1799999
1.6799999 -7.3499999 -1.1900001
1.66 -7.3600001 -1.1799999
1.63 -7.3600001 -1.1900001
1.6 -7.3499999 -1.1799999
1.58 -7.3499999 -1.1900001
1.55 -7.3600001 -1.1799999
1.53 -7.3699999 -1.1900001
1.5 -7.4000001 -1.1799999
1.48 -7.3899999 -1.1900001
1.45 -7.3800001 -1.1799999
1.42 -7.3899999 -1.1900001
1.39 -7.3899999 -1.1799999
1.37 -7.4000001 -1.1900001
1.35 -7.4099998 -1.1799999
1.3200001 -7.4000001 -1.1900001
1.3 -7.4099998 -1.1799999
1.27 -7.4299998 -1.1900001
1.25 -7.4299998 -1.1799999
1.22 -7.4400001 -1.1900001
1.1900001 -7.4200001 -1.1799999
1.16 -7.4299998 -1.1900001
1.14 -7.4099998 -1.17
1.11 -7.4499998 -1.1900001
1.09 -7.4400001 -1.1799999
1.05 -7.4200001 -1.1799999
1.04 -7.4400001 -1.1799999
1.01 -7.4499998 -1.1900001
0.98000002 -7.4499998 -1.1799999
0.94999999 -7.4499998 -1.1799999
0.93000001 -7.4400001 -1.17
0.91000003 -7.4499998 -1.1799999
0.88 -7.46 -1.1799999
0.86000001 -7.48 -1.1900001
0.82999998 -7.4699998 -1.1799999
0.80000001 -7.48 -1.1900001
0.76999998 -7.46 -1.1799999
0.75 -7.46 -1.1799999
0.72000003 -7.5 -1.1799999
0.69999999 -7.48 -1.1900001
0.67000002 -7.48 -1.1799999
0.64999998 -7.4899998 -1.1900001
0.62 -7.4699998 -1.1799999
0.60000002 -7.5 -1.1900001
0.56 -7.4899998 -1.1799999
0.54000002 -7.5100002 -1.1900001
0.50999999 -7.48 -1.1799999
0.49000001 -7.4899998 -1.1799999
0.46000001 -7.4899998 -1.1799999
0.44 -7.5300002 -1.1900001
0.41 -7.4899998 -1.1799999
0.38 -7.48 -1.1799999
0.36000001 -7.5100002 -1.1799999
0.33000001 -7.5 -1.1799999
0.31 -7.4899998 -1.1799999
0.28 -7.54 -1.1900001
0.25999999 -7.54 -1.1799999
0.23 -7.5900002 -1.2
-0.82999998 -7.5599999 -1.1900001
-0.87 -7.54 -1.2
-0.88 -7.5300002 -1.1900001
-0.92000002 -7.54 -1.2
-0.93000001 -7.5100002 -1.1900001
-0.97000003 -7.5300002 -1.2
-0.99000001 -7.5100002 -1.1900001
-1.02 -7.5100002 -1.2
-1.04 -7.5100002 -1.1900001
-1.0700001 -7.5300002 -1.2
-1.1 -7.5300002 -1.1900001
-1.14 -7.5300002 -1.2
-1.14 -7.5 -1.1900001
-1.1900001 -7.5300002 -1.2
-1.2 -7.52 -1.1900001
-1.25 -7.54 -1.21
-1.25 -7.5100002 -1.1900001
-1.29 -7.5100002 -1.2
-1.3099999 -7.52 -1.2
-1.34 -7.52 -1.21
-1.37 -7.52 -1.2
-1.4 -7.5100002 -1.21
-1.41 -7.4899998 -1.1900001
-1.45 -7.5100002 -1.21
-1.47 -7.52 -1.2
-1.5 -7.5 -1.21
-1.52 -7.4899998 -1.2
-1.5599999 -7.5 -1.21
-1.58 -7.4899998 -1.2
-1.61 -7.5 -1.21
-1.63 -7.5 -1.2
-1.67 -7.5 -1.21
-1.6900001 -7.5 -1.2
-1.72 -7.4699998 -1.21
-1.74 -7.4699998 -1.2
-1.77 -7.4699998 -1.21
-1.79 -7.46 -1.2
-1.83 -7.4899998 -1.22
-1.84 -7.46 -1.2
-1.88 -7.48 -1.22
-1.89 -7.4499998 -1.2
-1.9400001 -7.5 -1.22
-1.95 -7.4499998 -1.21
-1.99 -7.4699998 -1.22
-2 -7.4200001 -1.2
-2.04 -7.4200001 -1.21
-2.1099999 -7.4200001 -1.21
-2.1500001 -7.4099998 -1.22
-2.1600001 -7.4200001 -1.21
-2.2 -7.4200001 -1.22
-2.22 -7.4099998 -1.21
-2.26 -7.4299998 -1.23
-2.27 -7.3800001 -1.21
-2.3 -7.4000001 -1.22
-2.3399999 -7.4200001 -1.22
-2.3599999 -7.3899999 -1.22
-2.3800001 -7.3800001 -1.22
-2.4100001 -7.3699999 -1.22
-2.4400001 -7.3899999 -1.22
-2.47 -7.3899999 -1.23
-0.36000001 -1.01 -0.16
-0.36000001 -0.97000003 -0.16
-0.34 -0.94 -0.15000001
-0.34999999 -0.94 -0.16
-0.34999999 -0.93000001 -0.15000001
-0.34999999 -0.93000001 -0.15000001
-0.37 -0.97000003 -0.15000001
-0.38 -0.94 -0.16
-0.34999999 -0.87 -0.14
-0.36000001 -0.87 -0.15000001
-0.36000001 -0.86000001 -0.14
-0.37 -0.87 -0.14
-0.36000001 -0.87 -0.14
-0.37 -0.87 -0.15000001
-0.37 -0.85000002 -0.14
-0.38 -0.87 -0.15000001
-0.38 -0.87 -0.14
-0.38999999 -0.87 -0.15000001
-0.37 -0.83999997 -0.13
-0.37 -0.81 -0.14
-0.36000001 -0.80000001 -0.13
-0.37 -0.79000002 -0.13
-0.36000001 -0.77999997 -0.12
-0.37 -0.77999997 -0.13
-0.36000001 -0.75999999 -0.12
-0.37 -0.76999998 -0.13
-0.34999999 -0.73000002 -0.12
-0.37 -0.75 -0.13
-0.36000001 -0.73000002 -0.12
-0.37 -0.74000001 -0.13
-0.36000001 -0.72000003 -0.12
-0.38 -0.75 -0.13
-0.38 -0.75 -0.12
-0.36000001 -0.69999999 -0.12
-0.34999999 -0.69 -0.11
-0.41 -0.79000002 -0.14
-3.95 -6.9299998 -1.25
-4.0100002 -6.9200001 -1.26
-4.02 -6.8899999 -1.25
-4.0500002 -6.8899999 -1.26
-4.0599999 -6.8499999 -1.25
-4.0999999 -6.8499999 -1.26
-4.1100001 -6.8400002 -1.25
-4.1500001 -6.8200002 -1.26
-4.1599998 -6.8000002 -1.25
-4.1999998 -6.8099999 -1.26
-4.21 -6.7800002 -1.25
-4.2399998 -6.77 -1.26
-4.2600002 -6.75 -1.25
-4.3000002 -6.77 -1.27
-4.3200002 -6.7399998 -1.26
-4.3400002 -6.7199998 -1.26
-4.3699999 -6.71 -1.26
-4.4000001 -6.7199998 -1.27
-4.4200001 -6.6900001 -1.26
-4.46 -6.71 -1.27
-4.4699998 -6.6599998 -1.26
-4.5100002 -6.6799998 -1.27
-4.5300002 -6.6599998 -1.26
-4.5500002 -6.6399999 -1.27
-4.5799999 -6.6199999 -1.26
-4.6100001 -6.6199999 -1.27
-4.6300001 -6.5999999 -1.27
-4.73 -6.6900001 -1.29
-4.7199998 -6.6199999 -1.28
-4.75 -6.6199999 -1.29
-4.7800002 -6.6300001 -1.28
-4.8099999 -6.5999999 -1.29
-4.79 -6.5500002 -1.27
-4.8400002 -6.5500002 -1.29
-4.8499999 -6.5300002 -1.28
-4.9000001 -6.54 -1.29
-4.9099998 -6.5100002 -1.28
-4.96 -6.5300002 -1.29
-4.96 -6.4899998 -1.28
-5 -6.48 -1.29
-5.02 -6.48 -1.29
-5.0700002 -6.4699998 -1.3
-5.0700002 -6.4499998 -1.29
-5.1199999 -6.4499998 -1.3
-5.1300001 -6.4200001 -1.29
-5.1599998 -6.4099998 -1.3
-5.1799998 -6.4000001 -1.29
-5.2399998 -6.4099998 -1.3099999
-5.2399998 -6.3800001 -1.3
-5.2600002 -6.3499999 -1.3
-5.3000002 -6.3499999 -1.3
-5.3200002 -6.3299999 -1.3099999
-5.3400002 -6.3200002 -1.3
-5.3699999 -6.29 -1.3099999
-5.3800001 -6.27 -1.3
-5.4299998 -6.29 -1.3099999
-5.4299998 -6.25 -1.3
-5.48 -6.2399998 -1.3099999
-5.48 -6.21 -1.3
-5.52 -6.21 -1.3099999
-5.54 -6.1900001 -1.3
-5.5799999 -6.1900001 -1.3200001
-5.5999999 -6.1700001 -1.3099999
-5.6500001 -6.1900001 -1.3200001
-5.6500001 -6.1399999 -1.3099999
-5.6900001 -6.1399999 -1.3200001
-5.71 -6.1100001 -1.3099999
-5.7399998 -6.1100001 -1.3200001
-5.7800002 -6.1100001 -1.3200001
-5.8000002 -6.0799999 -1.33
-5.8299999 -6.0700002 -1.3200001
-5.8499999 -6.0500002 -1.33
-0.47999999 0.07 -0.059999999
-0.49000001 0.07 -0.07
-0.47999999 0.07 -0.059999999
-0.54000002 0.079999998 -0.079999998
-0.51999998 0.079999998 -0.07
-0.54000002 0.090000004 -0.079999998
-0.47999999 0.079999998 -0.059999999
-0.49000001 0.079999998 -0.07
-0.47999999 0.090000004 -0.059999999
-0.54000002 0.1 -0.079999998
-0.47999999 0.090000004 -0.059999999
-0.56 0.1 -0.090000004
-0.47999999 0.090000004 -0.059999999
-0.49000001 0.1 -0.07
-0.56999999 0.12 -0.079999998
-0.47999999 0.1 -0.07
-0.56999999 0.12 -0.079999998
-0.55000001 0.14 -0.090000004
-0.47 0.12 -0.059999999
-0.51999998 0.13 -0.079999998
-0.49000001 0.13 -0.07
-0.54000002 0.14 -0.079999998
-0.49000001 0.13 -0.07
-0.5 0.13 -0.079999998
-0.47999999 0.13 -0.07
-0.49000001 0.14 -0.079999998
-0.47999999 0.14 -0.07
-0.47999999 0.14 -0.079999998
-0.50999999 0.15000001 -0.07
-0.50999999 0.15000001 -0.079999998
-0.50999999 0.15000001 -0.07
-0.54000002 0.16 -0.090000004
-0.46000001 0.16 -0.059999999
-0.51999998 0.18000001 -0.079999998
-0.47 0.16 -0.07
-0.47 0.16 -0.079999998
-0.44999999 0.16 -0.059999999
-0.47 0.17 -0.079999998
-0.47 0.17 -0.07
-0.47 0.17 -0.079999998
-0.47999999 0.18000001 -0.07
-0.5 0.19 -0.079999998
-0.47 0.18000001 -0.07
-0.46000001 0.17 -0.07
-0.44999999 0.18000001 -0.059999999
-0.46000001 0.18000001 -0.07
-10.16 4.3200002 -1.74
-10.09 4.3400002 -1.74
-10.1 4.3800001 -1.73
-10.09 4.4200001 -1.74
-10.05 4.4499998 -1.73
-10.04 4.48 -1.74
-10.01 4.5100002 -1.73
-10.02 4.5599999 -1.74
-9.9899998 4.5900002 -1.73
-9.9899998 4.6199999 -1.74
-9.96 4.6599998 -1.73
-9.96 4.6900001 -1.74
-9.9300003 4.73 -1.73
-9.9300003 4.7600002 -1.74
-9.9099998 4.8099999 -1.73
-9.8999996 4.8400002 -1.74
-9.8800001 4.8800001 -1.73
-9.8800001 4.9099998 -1.74
-9.8500004 4.9499998 -1.73
-9.8599997 4.9899998 -1.75
-9.8100004 5.02 -1.73
-9.8100004 5.0500002 -1.74
-9.7799997 5.0900002 -1.73
-9.8100004 5.1300001 -1.75
-9.7600002 5.1700001 -1.74
-9.7799997 5.21 -1.75
-9.75 5.2399998 -1.74
-9.7600002 5.2800002 -1.75
-9.7299995 5.3200002 -1.74
-9.7600002 5.3800001 -1.76
-9.7299995 5.4099998 -1.75
-9.7200003 5.4400001 -1.76
-9.7299995 5.4899998 -1.76
-9.7200003 5.5300002 -1.77
-9.6999998 5.5700002 -1.76
-9.6999998 5.6100001 -1.77
-9.6800003 5.6399999 -1.76
-9.6700001 5.6799998 -1.77
-9.6599998 5.7199998 -1.77
-9.6300001 5.75 -1.77
-9.6300001 5.79 -1.77
-9.6099997 5.8299999 -1.78
-9.5900002 5.8600001 -1.77
-9.6000004 5.9099998 -1.78
-9.5600004 5.9400001 -1.77
-9.5500002 5.98 -1.78
-9.54 6.02 -1.77
-9.5699997 6.0700002 -1.79
-9.6000004 6.1500001 -1.79
-9.5699997 6.1700001 -1.8
-9.5699997 6.23 -1.8
-9.5299997 6.25 -1.8
-9.54 6.3000002 -1.8
-9.4899998 6.3200002 -1.8
-9.4499998 6.3299999 -1.79
-9.4200001 6.3499999 -1.8
-9.3800001 6.3899999 -1.79
-9.4399996 6.46 -1.8099999
-9.4499998 6.5300002 -1.8099999
-9.3900003 6.52 -1.8099999
-9.3299999 6.5500002 -1.79
-9.3299999 6.5799999 -1.8
-9.3299999 6.6399999 -1.8
-9.3500004 6.6999998 -1.8200001
-9.29 6.7199998 -1.8
-9.2700005 6.73 -1.8099999
-9.2200003 6.7600002 -1.8
-9.2399998 6.8099999 -1.8099999
-9.1800003 6.8299999 -1.8
-9.1899996 6.8800001 -1.8099999
-9.1499996 6.9000001 -1.8
-9.1300001 6.9299998 -1.8099999
-9.1099997 6.9699998 -1.8
-9.1000004 7.0100002 -1.8200001
-9.0600004 7.0300002 -1.8
-9.0500002 7.0799999 -1.8200001
-9.0200005 7.0999999 -1.8099999
-9.0200005 7.1500001 -1.8200001
-9 7.1900001 -1.8099999
-8.9899998 7.23 -1.8200001
-8.9399996 7.2399998 -1.8099999
-8.9300003 7.2800002 -1.8200001
-8.9200001 7.3299999 -1.8200001
-8.8999996 7.3600001 -1.8200001
-8.8699999 7.3899999 -1.8200001
-8.8599997 7.4400001 -1.83
-8.8299999 7.46 -1.8200001
-8.8199997 7.5100002 -1.83
-8.8000002 7.54 -1.8200001
-8.7799997 7.5799999 -1.83
-8.75 7.6100001 -1.8200001
-8.7299995 7.6500001 -1.83
-8.71 7.6799998 -1.83
-8.6899996 7.6999998 -1.84
-8.6599998 7.75 -1.83
-8.6700001 7.8000002 -1.84
-8.6700001 7.8699999 -1.84
-8.6800003 7.9099998 -1.86
-8.6300001 7.9499998 -1.85
-8.5900002 7.9499998 -1.85
-8.5500002 7.98 -1.84
-8.5200005 8 -1.85
-8.4399996 7.9899998 -1.83
-8.4899998 8.0799999 -1.85
-8.46 8.1300001 -1.85
-8.4200001 8.1199999 -1.85
-8.4099998 8.1899996 -1.85
-8.3800001 8.1999998 -1.85
-8.3400002 8.2299995 -1.84
-8.3400002 8.2700005 -1.86
-8.29 8.3000002 -1.85
-8.2799997 8.3299999 -1.86
-8.2399998 8.3699999 -1.85
-8.2299995 8.3999996 -1.86
-8.1899996 8.4399996 -1.85
-8.1700001 8.46 -1.86
-8.1300001 8.4899998 -1.85
-8.1300001 8.5299997 -1.86
-8.0900002 8.5500002 -1.85
-8.0799999 8.6000004 -1.86
-8.0200005 8.5900002 -1.85
-8.0100002 8.6400003 -1.86
-7.98 8.6700001 -1.85
-7.96 8.71 -1.86
-7.9099998 8.7200003 -1.85
-7.8899999 8.7600002 -1.86
-7.8600001 8.7799997 -1.85
-7.8400002 8.8199997 -1.86
-7.8000002 8.8500004 -1.86
-7.8000002 8.8999996 -1.87
-7.77 8.9399996 -1.86
-7.7600002 8.9899998 -1.88
-7.73 9.0100002 -1.87
-7.7199998 9.0699997 -1.88
-7.71 9.1199999 -1.88
-7.6900001 9.1599998 -1.89
-7.6700001 9.1999998 -1.88
-7.6900001 9.29 -1.91
-7.6999998 9.3699999 -1.91
-7.6799998 9.3999996 -1.92
-7.5700002 9.3500004 -1.89
-7.6100001 9.4499998 -1.92
-7.5300002 9.4300003 -1.9
-7.5500002 9.5 -1.92
-7.3200002 9.9200001 -1.9400001
-7.2199998 10 -1.95
-7.2399998 10.1 -1.96
-7.1900001 10.08 -1.96
-7.1500001 10.13 -1.95
-7.1199999 10.14 -1.96
-7.0599999 10.15 -1.9400001
-7.0500002 10.19 -1.96
-7 10.22 -1.95
-6.98 10.25 -1.96
-6.9499998 10.3 -1.96
-6.9299998 10.33 -1.97
-6.8699999 10.34 -1.95
-6.8800001 10.41 -1.97
-6.8299999 10.44 -1.96
-6.8400002 10.5 -1.98
-6.79 10.52 -1.97
-6.77 10.55 -1.98
-6.7199998 10.58 -1.97
-6.7199998 10.64 -1.99
-6.6700001 10.67 -1.98
-6.6399999 10.68 -1.99
-6.6300001 10.75 -1.99
-6.5900002 10.76 -1.99
-6.5700002 10.83 -1.99
-6.5700002 10.9 -2.01
-6.21 11.38 -2.04
-6.1900001 11.41 -2.05
-5.8899999 11.72 -2.0599999
-5.8499999 11.75 -2.0699999
-5.8099999 11.76 -2.0599999
-5.79 11.82 -2.0799999
-5.7199998 11.8 -2.0599999
-5.6999998 11.85 -2.0799999
-5.6399999 11.84 -2.0599999
-5.6199999 11.9 -2.0799999
-5.5799999 11.92 -2.0699999
-5.54 11.95 -2.0799999
-5.5100002 11.99 -2.0799999
-5.48 12.03 -2.0899999
-5.4299998 12.05 -2.0799999
-5.4099998 12.07 -2.0899999
-5.3499999 12.1 -2.0799999
-5.3299999 12.11 -2.0899999
-5.27 12.15 -2.0799999
-5.2600002 12.19 -2.0999999
-5.21 12.23 -2.0899999
-5.1700001 12.21 -2.0999999
-5.1300001 12.28 -2.0899999
-5.1100001 12.32 -2.1099999
-5.0599999 12.36 -2.0999999
-5.04 12.4 -2.1199999
-4.98 12.41 -2.0999999
-4.9499998 12.43 -2.1199999
-4.9000001 12.46 -2.1099999
-4.8699999 12.48 -2.1199999
-4.8200002 12.49 -2.1099999
-4.79 12.52 -2.1199999
-4.7399998 12.55 -2.1099999
-4.6999998 12.57 -2.1199999
-4.6700001 12.61 -2.1199999
-4.6199999 12.62 -2.1199999
-4.5799999 12.65 -2.1199999
-4.54 12.67 -2.1300001
-4.5 12.72 -2.1199999
-4.4699998 12.75 -2.1400001
-4.4200001 12.77 -2.1300001
-4.3800001 12.78 -2.1400001
-4.3400002 12.83 -2.1300001
-4.3000002 12.85 -2.1400001
-4.2600002 12.89 -2.1400001
-4.2199998 12.91 -2.1500001
-4.1700001 12.92 -2.1400001
-4.1399999 12.96 -2.1500001
-4.0900002 12.98 -2.1400001
-4.0599999 13.01 -2.1600001
-4.0100002 13.05 -2.1500001
-3.97 13.06 -2.1600001
-3.9300001 13.09 -2.1500001
-3.8900001 13.13 -2.1700001
-3.8499999 13.16 -2.1600001
-3.8099999 13.2 -2.1700001
-3.77 13.23 -2.1600001
-3.75 13.27 -2.1800001
-3.6800001 13.28 -2.1700001
-3.6600001 13.33 -2.1900001
-3.5999999 13.36 -2.1800001
-3.5799999 13.38 -2.1900001
-3.53 13.44 -2.1900001
-3.5 13.47 -2.2
-3.4400001 13.5 -2.1900001
-3.4000001 13.49 -2.2
-3.3399999 13.51 -2.1900001
-3.3099999 13.54 -2.2
-3.25 13.56 -2.1900001
-3.22 13.58 -2.21
-3.1600001 13.59 -2.2
-3.1300001 13.62 -2.21
-3.0699999 13.64 -2.2
-3.05 13.68 -2.22
-3 13.71 -2.21
-2.96 13.75 -2.22
-2.9200001 13.81 -2.22
-2.9100001 14.01 -2.26
-2.55 13.96 -2.23
-2.22 12.61 -2.02
-2.1500001 12.6 -2.01
-2.1300001 12.63 -2.02
-2.0699999 12.62 -2.01
-2.03 12.6 -2.02
-1.97 12.57 -2
-1.9400001 12.59 -2.01
-1.88 12.61 -2.01
-1.85 12.58 -2.01
-1.8 12.58 -2
-1.76 12.59 -2.01
-1.71 12.63 -2
-1.88 14.18 -2.26
-1.84 14.24 -2.26
-1.8 14.32 -2.28
-1.76 14.4 -2.28
-1.71 14.4 -2.29
-1.66 14.48 -2.29
-1.2 14.46 -2.29
-1.16 14.56 -2.3
-1.1 14.45 -2.29
-1.05 14.48 -2.29
-1.01 14.44 -2.29
-0.94999999 14.46 -2.28
-0.91000003 14.39 -2.28
-0.83999997 14.44 -2.28
-0.81 14.42 -2.28
-0.74000001 14.42 -2.27
-0.70999998 14.41 -2.28
-0.63999999 14.49 -2.28
-0.61000001 14.49 -2.29
-0.54000002 14.45 -2.28
-0.50999999 14.45 -2.29
-0.44 14.45 -2.28
-0.41 14.47 -2.29
-0.34 14.46 -2.28
-0.30000001 14.44 -2.28
-0.25 14.41 -2.27
-0.2 14.45 -2.29
-0.15000001 14.45 -2.27
-0.1 14.4 -2.28
-0.029999999 14.4 -2.27
0 14.4 -2.28
0.029999999 14.43 -2.27
0.090000004 14.39 -2.27
0.13 14.42 -2.27
0.19 14.39 -2.28
0.23 14.39 -2.27
0.28999999 14.39 -2.27
0.33000001 14.37 -2.26
0.38999999 14.4 -2.28
0.44 14.38 -2.27
0.49000001 14.37 -2.27
0.54000002 14.35 -2.26
0.57999998 14.32 -2.27
0.63999999 14.36 -2.26
0.68000001 14.36 -2.27
0.73000002 14.32 -2.26
0.58999997 10.79 -1.71
0.85000002 14.6 -2.3
0.94 14.35 -2.27
0.98000002 14.27 -2.25
1.04 14.37 -2.28
1.08 14.27 -2.25
1.13 14.22 -2.26
1.17 14.16 -2.24
1.22 14.14 -2.24
1.26 14.11 -2.23
1.3099999 14.1 -2.24
1.21 12.56 -1.98
1.25 12.53 -1.99
1.3 12.52 -1.98
1.34 12.52 -1.99
1.39 12.55 -1.99
1.4299999 12.54 -2
1.48 12.56 -1.99
1.51 12.52 -1.99
1.55 12.54 -1.99
1.6 12.51 -1.99
1.65 12.51 -1.98
1.7 12.55 -2
1.75 12.57 -2
1.97 13.83 -2.21
2 13.79 -2.1900001
2.0599999 13.8 -2.21
2.0999999 13.77 -2.1900001
2.1500001 13.75 -2.2
2.1900001 13.71 -2.1800001
2.24 13.69 -2.1900001
2.28 13.68 -2.1800001
2.3299999 13.62 -2.1900001
2.3699999 13.6 -2.1700001
2.4200001 13.6 -2.1800001
2.46 13.58 -2.1700001
2.52 13.6 -2.1900001
2.5599999 13.56 -2.1700001
2.73 13.44 -2.1700001
2.78 13.43 -2.1600001
2.8099999 13.35 -2.1600001
2.8399999 13.3 -2.1400001
2.9000001 13.31 -2.1500001
2.95 13.28 -2.1400001
2.98 13.26 -2.1500001
3.01 13.19 -2.1300001
3.0599999 13.17 -2.1400001
3.0899999 13.14 -2.1199999
3.1500001 13.13 -2.1300001
3.1800001 13.09 -2.1199999
3.23 13.08 -2.1300001
3.26 13.02 -2.1099999
3.3199999 13.02 -2.1199999
3.3499999 13 -2.1099999
3.3800001 12.94 -2.1099999
3.4200001 12.9 -2.0999999
3.46 12.88 -2.1099999
3.51 12.86 -2.0999999
3.54 12.82 -2.0999999
3.5899999 12.8 -2.0899999
3.6199999 12.75 -2.0899999
3.6700001 12.73 -2.0799999
3.6900001 12.69 -2.0899999
3.75 12.68 -2.0799999
3.77 12.63 -2.0799999
3.8299999 12.64 -2.0799999
3.8699999 12.62 -2.0899999
3.9100001 12.59 -2.0699999
3.95 12.59 -2.0899999
4.0100002 12.59 -2.0799999
4.0300002 12.54 -2.0799999
4.0799999 12.52 -2.0699999
4.1199999 12.5 -2.0799999
4.1599998 12.46 -2.0699999
4.1900001 12.43 -2.0699999
4.2199998 12.39 -2.0599999
4.27 12.38 -2.0699999
4.3099999 12.37 -2.0599999
4.3499999 12.32 -2.0699999
4.3899999 12.3 -2.05
4.4400001 12.29 -2.0699999
4.46 12.25 -2.05
4.5100002 12.23 -2.0599999
4.54 12.2 -2.05
4.5799999 12.17 -2.0599999
4.6199999 12.15 -2.04
4.6700001 12.13 -2.0599999
4.6900001 12.09 -2.04
4.7399998 12.06 -2.05
4.77 12.05 -2.04
4.8200002 12.01 -2.05
4.8499999 11.99 -2.03
4.8899999 11.94 -2.04
4.9200001 11.92 -2.03
4.9499998 11.88 -2.03
4.9899998 11.86 -2.02
5.0300002 11.84 -2.03
5.0700002 11.82 -2.02
5.1100001 11.82 -2.04
5.1599998 11.8 -2.03
5.1999998 11.79 -2.04
5.2399998 11.76 -2.02
5.29 11.77 -2.04
5.3200002 11.74 -2.03
5.3600001 11.71 -2.04
5.3899999 11.65 -2.02
5.4000001 11.59 -2.02
5.4699998 11.63 -2.02
5.4899998 11.57 -2.02
5.5300002 11.52 -2.01
5.5599999 11.5 -2.02
5.5999999 11.46 -2.01
5.6300001 11.43 -2.01
5.6599998 11.4 -2
5.6999998 11.38 -2.01
5.73 11.34 -2
5.75 11.31 -2.01
5.8000002 11.3 -2
5.8099999 11.23 -2
5.8699999 11.24 -1.99
5.8800001 11.15 -1.99
5.9000001 11.11 -1.98
5.9400001 11.09 -1.99
5.9699998 11.04 -1.97
6.0100002 11.04 -1.99
6 10.92 -1.96
6.04 10.92 -1.97
6.1100001 10.94 -1.97
6.1900001 10.9 -1.98
6.2199998 10.88 -1.97
6.2199998 10.77 -1.97
6.3400002 10.64 -1.95
6.3699999 10.62 -1.96
6.4000001 10.57 -1.9400001
6.4499998 10.58 -1.96
6.5100002 10.42 -1.9299999
6.6799998 10.14 -1.92
6.71 10.12 -1.91
6.7399998 10.07 -1.92
6.7800002 10.07 -1.91
6.8000002 10.01 -1.91
6.8200002 9.9799995 -1.9
6.8099999 9.9099998 -1.9
6.8499999 9.8800001 -1.89
6.8800001 9.8500004 -1.9
6.9099998 9.8199997 -1.89
6.9400001 9.79 -1.9
6.98 9.7700005 -1.89
6.96 9.6800003 -1.89
7.02 9.6700001 -1.88
7.0500002 9.6499996 -1.89
7.1100001 9.6499996 -1.88
7.0900002 9.5699997 -1.88
7.1199999 9.5299997 -1.87
7.1300001 9.4799995 -1.88
7.1500001 9.46 -1.86
7.1799998 9.4099998 -1.87
7.21 9.3900003 -1.86
5.5999999 7.2399998 -1.45
7.3299999 9.4200001 -1.88
7.3099999 9.3100004 -1.87
7.4000001 9.3699999 -1.88
7.3800001 9.2600002 -1.87
7.4200001 9.1899996 -1.86
7.4499998 9.1700001 -1.87
7.4699998 9.0600004 -1.85
7.5 9.04 -1.86
7.5500002 8.8999996 -1.83
7.5799999 8.8800001 -1.84
7.6599998 8.8999996 -1.85
7.6799998 8.8800001 -1.86
7.79 8.3800001 -1.8
7.8299999 8.3800001 -1.8099999
7.8499999 8.3299999 -1.8
7.8699999 8.3100004 -1.8099999
7.8800001 8.25 -1.79
7.9200001 8.2399998 -1.8099999
7.9400001 8.1899996 -1.79
7.96 8.1599998 -1.8
7.98 8.1199999 -1.79
7.96 8.0600004 -1.79
7.9400001 7.98 -1.77
7.98 7.96 -1.78
8.0200005 7.9499998 -1.77
8.04 7.9099998 -1.78
8.0600004 7.8800001 -1.77
8.0900002 7.8400002 -1.78
8.1099997 7.8200002 -1.77
8.1199999 7.77 -1.78
8.1400003 7.7399998 -1.77
8.1599998 7.6999998 -1.77
8.1800003 7.6700001 -1.76
8.21 7.6300001 -1.77
8.2299995 7.6100001 -1.76
8.2799997 7.5900002 -1.77
8.2700005 7.54 -1.76
8.3100004 7.5100002 -1.77
8.3299999 7.48 -1.76
8.3500004 7.46 -1.77
8.3999996 7.4499998 -1.76
8.3699999 7.3699999 -1.76
8.3900003 7.3400002 -1.75
8.4700003 7.3600001 -1.77
8.5 7.3200002 -1.76
8.4700003 7.25 -1.76
8.5200005 7.1900001 -1.75
8.5500002 7.1599998 -1.76
8.5600004 7.1300001 -1.75
8.5600004 7.0799999 -1.76
8.5699997 7.0300002 -1.74
8.6000004 7.0100002 -1.75
8.6400003 6.9899998 -1.75
8.6300001 6.9299998 -1.75
8.6800003 6.9200001 -1.75
8.6599998 6.8600001 -1.75
8.7700005 6.8899999 -1.75
8.7200003 6.8099999 -1.75
8.7399998 6.77 -1.74
8.75 6.7399998 -1.75
8.7600002 6.6900001 -1.73
8.79 6.6700001 -1.74
8.8199997 6.6399999 -1.73
8.8400002 6.6100001 -1.74
8.8199997 6.54 -1.73
8.8599997 6.5300002 -1.74
8.8800001 6.4899998 -1.73
8.8900003 6.46 -1.74
8.9200001 6.4200001 -1.73
8.9300003 6.3899999 -1.74
8.9099998 6.3400002 -1.72
8.96 6.3200002 -1.73
9 6.3000002 -1.73
9 6.25 -1.73
8.9899998 6.1999998 -1.72
9 6.1599998 -1.72
9.04 6.1500001 -1.72
9.0699997 6.1100001 -1.73
9.0699997 6.0700002 -1.72
9.1000004 6.04 -1.73
9.1099997 6.0100002 -1.71
9.1700001 5.9899998 -1.73
9.1499996 5.9499998 -1.71
9.1700001 5.9200001 -1.72
9.1599998 5.8600001 -1.71
9.21 5.8499999 -1.72
9.2299995 5.8099999 -1.71
9.2600002 5.79 -1.73
9.3100004 5.77 -1.72
9.4300003 5.5700002 -1.73
9.4200001 5.4400001 -1.71
9.4099998 5.3899999 -1.71
9.4099998 5.3499999 -1.7
9.4300003 5.3200002 -1.71
9.4300003 5.27 -1.7
9.4700003 5.2600002 -1.71
9.4499998 5.1999998 -1.6900001
9.4700003 5.1700001 -1.7
9.46 5.1199999 -1.6900001
9.4899998 5.0999999 -1.7
9.5 5.0599999 -1.6900001
9.5100002 5.0300002 -1.7
9.54 5 -1.6900001
9.5100002 4.9400001 -1.6900001
9.5500002 4.9200001 -1.6900001
9.5600004 4.8800001 -1.7
9.5799999 4.8499999 -1.6900001
9.5799999 4.8099999 -1.6900001
9.5900002 4.77 -1.6799999
9.6199999 4.7399998 -1.6900001
9.6000004 4.6999998 -1.6799999
9.5799999 4.6500001 -1.6799999
9.5900002 4.6100001 -1.67
9.6300001 4.5900002 -1.6900001
9.6300001 4.54 -1.67
9.6400003 4.5100002 -1.6799999
9.6400003 4.4699998 -1.67
9.6599998 4.4400001 -1.6799999
9.6800003 4.4000001 -1.67
9.6999998 4.3800001 -1.6799999
9.7200003 4.3400002 -1.67
9.6999998 4.3000002 -1.6799999
9.71 4.25 -1.66
9.7200003 4.2199998 -1.67
9.75 4.1900001 -1.67
9.7600002 4.1599998 -1.6799999
9.7600002 4.1100001 -1.66
9.7700005 4.0799999 -1.67
9.7700005 4.0500002 -1.66
9.7700005 4.0100002 -1.67
9.8100004 3.97 -1.66
9.8100004 3.9400001 -1.67
9.8199997 3.9100001 -1.66
9.8100004 3.8599999 -1.67
9.8299999 3.8299999 -1.66
9.8500004 3.8 -1.67
9.8599997 3.77 -1.66
9.9099998 3.74 -1.67
9.9399996 3.72 -1.67
9.8999996 3.6600001 -1.67
9.8999996 3.6199999 -1.66
9.96 3.5999999 -1.67
9.9700003 3.5699999 -1.66
9.9499998 3.52 -1.67
9.96 3.49 -1.66
9.9700003 3.46 -1.67
10.04 3.4400001 -1.67
10 3.3900001 -1.67
10.01 3.3499999 -1.66
10.02 3.3199999 -1.67
10.11 3.04 -1.66
10.15 2.9000001 -1.67
10.06 2.79 -1.64
10.11 2.77 -1.66
10.1 2.73 -1.64
10.1 2.6500001 -1.65
10.12 2.6300001 -1.64
10.09 2.5699999 -1.65
10.09 2.54 -1.63
10.11 2.5 -1.65
10.12 2.47 -1.64
10.11 2.4400001 -1.64
10.11 2.4000001 -1.63
10.12 2.3699999 -1.64
10.15 2.3299999 -1.63
10.17 2.3 -1.65
10.13 2.25 -1.63
10.16 2.23 -1.64
10.18 2.1900001 -1.64
10.17 2.1500001 -1.64
10.14 2.1099999 -1.63
10.15 2.0799999 -1.64
10.15 2.05 -1.63
10.16 2.01 -1.64
10.18 1.9299999 -1.63
10.28 1.91 -1.65
10.19 1.86 -1.63
10.2 1.83 -1.64
10.21 1.76 -1.63
10.25 1.47 -1.64
10.26 1.4400001 -1.63
10.22 1.1900001 -1.62
10.18 1.14 -1.61
10.16 1.1 -1.61
10.19 1.0700001 -1.61
10.21 1.03 -1.62
10.21 1 -1.61
10.17 0.97000003 -1.61
10.18 0.93000001 -1.6
10.16 0.88999999 -1.61
10.15 0.85000002 -1.6
10.18 0.81999999 -1.61
10.16 0.77999997 -1.6
10.17 0.75 -1.61
10.18 0.70999998 -1.6
10.16 0.68000001 -1.61
10.15 0.63999999 -1.6
10.16 0.61000001 -1.61
10.16 0.56999999 -1.6
10.14 0.54000002 -1.6
10.14 0.5 -1.59
10.12 0.46000001 -1.6
10.15 0.43000001 -1.6
10.17 0.38999999 -1.61
10.18 0.36000001 -1.6
10.16 0.31999999 -1.61
10.13 0.28999999 -1.59
10.19 0.25 -1.61
10.15 0.22 -1.59
10.2 0.18000001 -1.61
10.11 0.15000001 -1.59
10.16 0.12 -1.61
12.93 -0.88 -1.58
12.87 -0.92000002 -1.58
12.82 -0.95999998 -1.5599999
12.85 -1.01 -1.58
12.82 -1.05 -1.5599999
12.84 -1.1 -1.58
12.85 -1.14 -1.5700001
12.85 -1.1900001 -1.58
12.8 -1.22 -1.5599999
12.8 -1.28 -1.5700001
12.79 -1.3099999 -1.5599999
12.79 -1.37 -1.5700001
12.78 -1.4 -1.5599999
12.78 -1.46 -1.5700001
12.77 -1.5 -1.5599999
12.77 -1.55 -1.5700001
12.76 -1.59 -1.5599999
12.61 -2.51 -1.5700001
12.6 -2.54 -1.5599999
12.52 -2.5899999 -1.5700001
12.48 -2.6600001 -1.55
12.57 -2.73 -1.5700001
12.43 -2.74 -1.55
12.55 -2.8199999 -1.5700001
12.39 -2.8199999 -1.55
12.37 -2.8699999 -1.55
12.36 -2.9100001 -1.55
12.31 -2.9400001 -1.55
12.33 -2.99 -1.54
12.29 -3.03 -1.55
12.32 -3.0799999 -1.55
12.34 -3.1400001 -1.5599999
12.35 -3.1800001 -1.55
12.19 -3.4100001 -1.55
12.03 -3.4100001 -1.52
11.95 -3.4300001 -1.52
11.85 -3.45 -1.5
11.76 -3.47 -1.5
11.63 -3.47 -1.48
11.57 -3.5 -1.48
11.44 -3.5 -1.45
11.35 -3.52 -1.46
11.24 -3.52 -1.4299999
11.16 -3.55 -1.4299999
11.1 -3.5599999 -1.42
11.05 -3.5999999 -1.42
10.97 -3.5999999 -1.4
10.88 -3.6300001 -1.4
10.94 -3.6700001 -1.4
10.92 -3.72 -1.41
11.03 -3.79 -1.42
11.58 -4.04 -1.5
11.57 -4.0700002 -1.49
11.54 -4.1599998 -1.5
11.52 -4.1900001 -1.49
11.51 -4.2399998 -1.5
11.36 -4.2600002 -1.48
11.22 -4.3099999 -1.47
11.14 -4.3099999 -1.45
11.09 -4.3499999 -1.46
11.09 -4.3800001 -1.45
11.05 -4.4200001 -1.46
11 -4.4299998 -1.4400001
10.99 -4.4899998 -1.45
10.9 -4.48 -1.4299999
10.88 -4.5300002 -1.4400001
10.85 -4.5500002 -1.4299999
10.79 -4.5900002 -1.4400001
10.75 -4.5999999 -1.42
10.71 -4.6399999 -1.4299999
10.69 -4.6599998 -1.42
10.67 -4.71 -1.4299999
10.63 -4.7199998 -1.41
10.59 -4.75 -1.42
10.57 -4.7800002 -1.41
10.52 -4.8099999 -1.42
10.5 -4.8400002 -1.41
10.44 -4.8600001 -1.41
10.41 -4.8899999 -1.4
10.43 -4.9400001 -1.41
10.34 -4.9499998 -1.39
10.33 -4.9899998 -1.4
10.24 -4.9899998 -1.39
10.08 -5.04 -1.38
10.04 -5.0999999 -1.37
9.9899998 -5.21 -1.38
9.3299999 -5.5799999 -1.3200001
9.3000002 -5.6300001 -1.33
9.29 -5.6399999 -1.3200001
9.2700005 -5.6900001 -1.33
9.25 -5.71 -1.3200001
9.1599998 -5.7199998 -1.3200001
9.1400003 -5.73 -1.3099999
9.04 -5.7199998 -1.3099999
9.0699997 -5.77 -1.3099999
9.0100002 -5.79 -1.3099999
8.9799995 -5.8000002 -1.3
8.9700003 -5.8499999 -1.3099999
8.8999996 -5.8499999 -1.29
8.8599997 -5.8699999 -1.3
8.8400002 -5.8899999 -1.29
8.8299999 -5.9299998 -1.3
8.8000002 -5.96 -1.29
8.7200003 -5.9499998 -1.29
8.6700001 -5.96 -1.28
8.6400003 -5.9899998 -1.29
8.6000004 -6 -1.27
8.5900002 -6.04 -1.29
8.5299997 -6.04 -1.27
8.4899998 -6.0599999 -1.28
8.4399996 -6.0599999 -1.26
8.4300003 -6.0999999 -1.27
8.3900003 -6.1199999 -1.26
8.3599997 -6.1500001 -1.27
8.3299999 -6.1500001 -1.26
8.3000002 -6.1900001 -1.27
8.25 -6.1799998 -1.25
8.2399998 -6.2399998 -1.26
8.1999998 -6.2399998 -1.25
8.1199999 -6.2399998 -1.25
8.1099997 -6.2600002 -1.24
8.0900002 -6.3000002 -1.25
8.0500002 -6.3000002 -1.24
8 -6.3200002 -1.25
7.96 -6.3200002 -1.23
7.9200001 -6.3499999 -1.24
7.9000001 -6.3600001 -1.23
7.8699999 -6.4000001 -1.24
7.8299999 -6.4000001 -1.23
7.8000002 -6.4400001 -1.24
7.77 -6.4400001 -1.23
7.7600002 -6.5 -1.24
7.7199998 -6.4899998 -1.23
7.6900001 -6.52 -1.23
7.6500001 -6.5300002 -1.22
7.5900002 -6.52 -1.22
7.5700002 -6.5500002 -1.22
7.5500002 -6.5799999 -1.23
7.5799999 -6.6399999 -1.22
7.5 -6.6300001 -1.22
7.4499998 -6.6300001 -1.21
7.4699998 -6.6900001 -1.23
7.3899999 -6.6599998 -1.21
7.3499999 -6.6900001 -1.22
7.3200002 -6.6900001 -1.2
7.3000002 -6.73 -1.22
7.2800002 -6.75 -1.21
7.2399998 -6.77 -1.21
7.1999998 -6.7600002 -1.2
7.1700001 -6.8000002 -1.21
7.1500001 -6.8099999 -1.2
7.1199999 -6.8499999 -1.21
7.0999999 -6.8600001 -1.2
7.0799999 -6.9000001 -1.21
7.0500002 -6.9099998 -1.2
7 -6.9200001 -1.2
6.9699998 -6.9200001 -1.1900001
6.98 -7 -1.21
6.8699999 -6.9200001 -1.1799999
6.8600001 -6.98 -1.2
6.8400002 -6.9899998 -1.1900001
6.79 -7.0500002 -1.2
6.7399998 -7.02 -1.1799999
6.6900001 -7.04 -1.1900001
6.6500001 -7.0900002 -1.1799999
6.6300001 -7.1199999 -1.1900001
6.5999999 -7.1300001 -1.1799999
6.54 -7.1300001 -1.1799999
6.5100002 -7.1399999 -1.17
6.5 -7.1799998 -1.1900001
6.4699998 -7.1999998 -1.1799999
6.4499998 -7.23 -1.1900001
6.4200001 -7.2399998 -1.1799999
6.3699999 -7.2399998 -1.1799999
6.3800001 -7.2800002 -1.1799999
6.3499999 -7.3200002 -1.1900001
6.29 -7.29 -1.17
