# .PCD v0.7 - Point Cloud Data file format
VERSION 0.7
FIELDS x y z
SIZE 4 4 4
TYPE F F F
COUNT 1 1 1
WIDTH 1709
HEIGHT 1
VIEWPOINT 0 0 0 1 0 0 0
POINTS 1709
DATA ascii
10.571418 10.049458 -4.9285221
58.952755 56.041981 3.7931719
11.659429 11.083748 -5.0197759
21.785666 20.710005 2.101897
13.011505 12.369066 -5.147809
23.528328 22.366625 3.0286469
14.617488 13.895754 -5.2797899
20.236917 19.237726 3.2652161
16.719984 15.89444 -5.4660902
22.909613 21.778458 4.4423952
19.532581 18.568167 -5.7283692
0 0 0
20.754721 19.729963 -5.3953428
0 0 0
5.6866522 5.3682079 -4.6377578
21.182198 19.996027 -4.7857909
6.0074019 5.6709962 -4.6417141
21.767097 20.548172 -4.2069139
6.3743372 6.0173841 -4.660912
33.888069 31.990391 -5.449769
6.7917881 6.411458 -4.69139
49.598934 46.821468 -6.3634658
7.2272582 6.8225422 -4.704433
65.381989 61.720692 -6.2872748
7.7458129 7.3120589 -4.7425489
0 0 -0
8.325675 7.8594499 -4.7823262
24.833569 23.442926 -0.79288501
8.9574499 8.4558458 -4.8100882
20.69537 19.536461 0
9.7277431 9.1830034 -4.8690009
21.533089 20.327269 0.68750697
10.606437 10.012492 -4.9285221
59.101551 55.79195 3.79019
11.706381 11.050841 -5.0233512
22.185713 20.943344 2.1334269
13.05181 12.320928 -5.1467061
20.417641 19.274282 2.6195509
14.657467 13.836671 -5.276751
0 0 0
16.749897 15.811928 -5.4577899
23.11512 21.820705 4.4674459
19.509085 18.416603 -5.7025881
25.0369 23.634871 5.6567011
20.834906 19.66818 -5.3983049
21.183632 19.997379 5.4886589
5.7078671 5.3506761 -4.6397991
21.263393 19.932756 -4.7883849
6.0169859 5.64045 -4.6338758
21.650858 20.295971 -4.1707292
6.405612 6.004756 -4.6684241
34.086498 31.953405 -5.463707
6.8115211 6.3852639 -4.6895938
49.712692 46.60173 -6.3571491
7.2457561 6.792325 -4.7010102
65.329224 61.241001 -6.2616048
7.7766242 7.2899718 -4.7458029
0 0 -0
8.3449831 7.8227639 -4.7777009
24.956102 23.394379 -0.79418498
8.9869137 8.4245243 -4.8100882
20.938541 19.628231 0
9.7624826 9.1515589 -4.870369
21.837318 20.470764 0.69493502
10.638561 9.9728117 -4.9272408
66.379639 62.225681 4.2429781
11.733745 10.999461 -5.0185852
21.35041 20.014326 2.046371
13.083522 12.26477 -5.1422958
20.438311 19.159306 2.613606
14.708505 13.788064 -5.2777638
65.457092 61.360863 10.492083
16.810675 15.758681 -5.4596338
21.887825 20.51811 4.2163782
19.596092 18.369793 -5.7092409
22.772335 21.347269 5.1281891
20.906307 19.598015 -5.3990459
0 0 0
5.7381678 5.343442 -4.650001
21.309155 19.843307 -4.7838459
6.0305519 5.6157131 -4.6299582
0 0 -0
6.422904 5.9810748 -4.6665459
34.270771 31.913301 -5.4762521
6.8221931 6.3528981 -4.6824121
49.843632 46.414913 -6.354177
7.268239 6.76826 -4.7010102
65.692551 61.173595 -6.2769508
7.787384 7.2516928 -4.737668
81.124443 75.543938 -5.1694241
8.3681774 7.7925339 -4.7761598
24.913551 23.19976 -0.79037797
9.0120745 8.3921375 -4.8086329
21.430902 19.95668 0
9.784524 9.1114511 -4.8662648
25.176941 23.44503 0.79873401
10.666026 9.9323149 -4.9246802
25.700275 23.932367 1.637677
11.772949 10.963094 -5.0197759
20.321589 18.923677 1.941736
13.121306 12.218698 -5.1411939
20.51339 19.102283 2.615092
14.737153 13.723392 -5.2716861
20.454304 19.047262 3.2684679
16.848595 15.689588 -5.4550228
0 0 0
19.625402 18.275381 -5.7000928
0 0 0
20.913645 19.475006 -5.384233
21.540768 20.058989 5.5456858
5.7239442 5.2930179 -4.623476
21.317419 19.712542 -4.7702279
6.0552349 5.5993681 -4.6338758
21.718691 20.083605 -4.1573691
6.4411449 5.9562249 -4.6646681
34.361523 31.77462 -5.4729991
6.8574448 6.3411841 -4.69139
50.055023 46.286644 -6.3604932
7.2971249 6.7477622 -4.704433
65.987679 61.01981 -6.2847638
7.8180108 7.2294331 -4.740922
0 0 -0
8.3871918 7.755764 -4.7715349
25.061895 23.175117 -0.79251301
9.0385723 8.3581047 -4.807178
20.769154 19.205551 0
9.8135033 9.0746956 -4.8648968
81.815231 75.655785 2.5871811
10.700624 9.89503 -4.9246802
26.033001 24.073112 1.653515
11.799924 10.91157 -5.0150099
23.548613 21.775761 2.242805
13.144108 12.154556 -5.1334758
20.498056 18.954865 2.6046879
14.756548 13.645604 -5.2615561
66.444916 61.442623 10.583145
16.894676 15.622764 -5.4522562
21.677975 20.045954 4.1495752
19.677574 18.196152 -5.6967669
20.595827 19.045275 4.6087561
20.967056 19.388556 -5.3805299
23.327833 21.571602 5.9863491
5.7515988 5.283318 -4.6316371
21.292557 19.558969 -4.7501249
6.0737691 5.579258 -4.6338758
22.044794 20.249962 -4.2069139
6.466063 5.9396119 -4.6684241
29.442986 27.045811 -4.6752791
6.8705382 6.3111558 -4.6860032
50.249298 46.158127 -6.365695
7.3247852 6.7284198 -4.7078552
65.95163 60.582012 -6.2621632
7.8365579 7.198525 -4.737668
0 0 -0
8.4346094 7.7478852 -4.7838678
24.655624 22.648226 -0.77728701
9.0689812 8.3306084 -4.8086329
21.259867 19.52894 0
9.8435411 9.0421047 -4.8648968
20.838892 19.142241 0.65696198
10.713842 9.841547 -4.9157171
22.199018 20.39163 1.4056931
11.838854 10.874964 -5.016202
21.499002 19.748608 2.041348
13.181508 12.108303 -5.1323729
25.376892 23.31077 3.214802
14.807415 13.601832 -5.2635822
66.001678 60.627983 10.480468
16.932055 15.55349 -5.4476452
25.33824 23.275263 4.8354192
19.734922 18.128155 -5.6959348
19.990295 18.362736 4.4596052
20.98781 19.279034 -5.369421
0 0 0
5.7878008 5.2794371 -4.6459198
21.279057 19.41004 -4.731967
6.0674448 5.5345192 -4.6142831
21.916351 19.99136 -4.1690588
6.4815402 5.9122429 -4.6646681
29.581251 26.983023 -4.6822481
6.9004502 6.2943592 -4.69139
30.878119 28.165979 -3.89923
7.3428879 6.6979351 -4.704433
65.915085 60.125523 -6.2387252
7.86164 7.171124 -4.737668
67.385857 61.46711 -4.2534132
8.4588795 7.7159052 -4.7823262
24.49523 22.343725 -0.76976699
9.0980082 8.2988968 -4.8086329
67.012848 61.126865 0
9.8639393 8.9975529 -4.8594241
23.780256 21.691549 0.74729902
10.759332 9.8143005 -4.9208388
72.75264 66.362511 4.5921659
11.862641 10.820702 -5.0102439
20.933987 19.095278 1.9813581
13.223698 12.062212 -5.1323729
23.93981 21.83709 3.0230739
14.854808 13.550056 -5.2635822
66.29805 60.47485 10.493942
16.98625 15.494285 -5.4476452
19.920498 18.170809 3.789396
19.774961 18.038055 -5.6892819
0 0 0
21.046272 19.197701 -5.3671989
20.993998 19.150019 5.353868
5.783246 5.2384119 -4.6275568
21.352537 19.340935 -4.733264
6.0970678 5.5226688 -4.6221199
22.188576 20.098211 -4.2074709
6.5099931 5.8966932 -4.670301
29.483871 26.706224 -4.6520491
6.9250312 6.2726312 -4.6931849
50.735649 45.955891 -6.3865032
7.3608661 6.6674061 -4.7010102
66.160065 59.927193 -6.2420731
7.8866272 7.1436348 -4.737668
67.543762 61.180527 -4.2498732
8.4748211 7.6764159 -4.7761598
24.549372 22.236599 -0.76902401
9.1241627 8.2645836 -4.807178
23.032171 20.862331 0
9.8952894 8.9630642 -4.8594241
23.603912 21.380211 0.739407
10.796337 9.7792244 -4.9221191
65.239784 59.093609 4.1049061
11.906004 10.784351 -5.0126271
23.499525 21.285658 2.217134
13.251477 12.003068 -5.1268611
65.961067 59.746937 8.3030481
14.899153 13.495518 -5.262569
21.168436 19.174177 3.3400159
17.020042 15.416601 -5.4411898
20.203993 18.300594 3.8311479
19.846512 17.976791 -5.6917772
21.574867 19.54232 4.7825489
21.15395 19.161057 -5.3775678
20.865526 18.899805 5.3042479
5.8219571 5.2366028 -4.6438799
21.422842 19.268936 -4.7339129
6.12149 5.5060201 -4.626039
22.609043 20.335875 -4.2737169
6.5279069 5.8715749 -4.6684241
29.668467 26.685526 -4.6664519
6.9468799 6.2484241 -4.6931849
31.094719 27.968378 -3.9018309
7.3894658 6.6465111 -4.704433
67.134232 60.384388 -6.3140621
7.914227 7.1185112 -4.739295
83.620674 75.213249 -5.2448878
8.4905834 7.636919 -4.7699928
24.912252 22.407515 -0.777937
9.14464 8.225215 -4.8028131
0 0 0
9.9348936 8.9360151 -4.8635278
20.779537 18.690311 0.648884
10.821948 9.7338829 -4.9182782
20.144655 18.119263 1.263521
11.935052 10.735073 -5.0090532
21.212149 19.079428 1.99503
13.299005 11.96189 -5.129066
19.916491 17.914038 2.4991629
14.943284 13.44085 -5.2615561
20.115717 18.093233 3.163933
17.067957 15.351902 -5.4393449
20.261848 18.224672 3.830034
19.903313 17.902184 -5.6901131
21.425776 19.271576 4.734561
21.322983 19.179117 -5.4034891
19.554834 17.588743 4.95542
5.8418598 5.2195549 -4.6459198
21.530788 19.237219 -4.7436399
6.147521 5.4926562 -4.631917
22.289425 19.915039 -4.2007909
6.5394459 5.8428302 -4.6627898
29.659052 26.499617 -4.6511202
6.9622369 6.2205839 -4.6895938
31.288296 27.955305 -3.914464
7.4060798 6.617146 -4.7010102
67.22406 60.063004 -6.3037381
7.9323449 7.0873508 -4.7360411
84.19149 75.222984 -5.2650118
8.5186214 7.6111732 -4.7715349
24.446693 21.842506 -0.761132
9.1774292 8.1998024 -4.8057232
67.412071 60.230991 0
9.9560709 8.8954992 -4.8594241
20.707228 18.501387 0.64470601
10.848524 9.6928825 -4.9157171
20.153994 18.007088 1.260353
11.959205 10.685249 -5.0042868
24.94717 22.289671 2.3393469
13.309936 11.892093 -5.1180401
23.539728 21.032154 2.945044
14.976243 13.380897 -5.257504
0 0 0
17.11298 15.290016 -5.437501
20.124285 17.980541 3.7927361
19.947996 17.823032 -5.685955
22.031162 19.68429 4.8538818
21.468557 19.181616 -5.4242258
19.721525 17.620687 4.9828229
5.8446002 5.1854358 -4.633678
21.624369 19.185535 -4.749476
6.1770868 5.4804249 -4.6397538
22.355827 19.834499 -4.2002339
6.570365 5.8293481 -4.670301
29.653282 26.308933 -4.635788
6.9732099 6.186759 -4.6824121
31.406525 27.864443 -3.9170649
7.4237199 6.5864601 -4.697587
67.442223 59.835972 -6.304575
7.959765 7.0620489 -4.737668
84.839073 75.270775 -5.2890491
8.5451317 7.5813971 -4.7715349
21.836576 19.37381 -0.67775899
9.1892681 8.1528864 -4.7969928
22.952538 20.363911 0
9.9926786 8.8656883 -4.8621602
0 0 0
10.893625 9.6650229 -4.9208388
20.31535 18.024149 1.266502
11.993567 10.640912 -5.0030951
21.302729 18.900169 1.991403
13.351359 11.845569 -5.1180401
24.819555 22.020363 3.0955291
15.02864 13.333684 -5.2595301
24.01268 21.304489 3.7539761
17.154591 15.219866 -5.4338121
20.020985 17.762983 3.7615609
19.995443 17.740322 -5.681797
21.541698 19.112188 4.731319
21.652987 19.210924 -5.4538512
21.114897 18.733522 5.3183188
5.8549218 5.1581779 -4.6275568
21.691214 19.109928 -4.749476
6.1673989 5.4334688 -4.6182022
22.418989 19.751099 -4.199121
6.5880251 5.80404 -4.6684241
23.699371 20.879112 -3.693578
7.0081749 6.174192 -4.69139
31.124081 27.420271 -3.8698759
7.4520941 6.5652838 -4.7010102
67.731537 59.671387 -6.312108
7.9843702 7.0342188 -4.737668
83.93206 73.944023 -5.2163801
8.5715456 7.5515199 -4.7715349
84.033646 74.033524 -2.6001799
9.2232647 8.1256828 -4.7999029
23.203569 20.442312 0
10.017928 8.8257799 -4.8594241
21.090927 18.581076 0.65259802
10.910238 9.6119041 -4.913156
0 0 0
12.033506 10.601502 -5.0042868
21.530256 18.968126 2.00647
13.3984 11.803971 -5.120245
0 0 0
15.057675 13.26579 -5.2534518
20.453005 18.019068 3.1876271
17.190096 15.144449 -5.428278
0 0 0
20.066059 17.678169 -5.6842918
19.36927 17.064299 4.2410669
21.793655 19.20018 -5.4723659
24.734282 21.790867 6.2107539
5.8694048 5.1364689 -4.6255159
21.757433 19.040495 -4.7501249
6.1880069 5.4152851 -4.6201611
22.606575 19.7836 -4.2219448
6.6045771 5.7798371 -4.6665459
23.580122 20.635576 -3.6643081
7.0366802 6.1579809 -4.6967759
31.298754 27.390352 -3.88028
7.4738231 6.5405359 -4.7010102
69.472466 60.797157 -6.4555268
7.9966521 6.9980779 -4.7311602
84.639854 74.070534 -5.2450752
8.5854301 7.5133319 -4.765368
21.110294 18.474167 -0.65129799
9.2641792 8.1073227 -4.807178
67.962463 59.475716 0
10.041482 8.7875614 -4.856688
22.09133 19.332697 0.68156499
10.947755 9.5806637 -4.9157171
20.163944 17.64599 1.2495461
12.068595 10.56154 -5.0042868
21.502954 18.817793 1.9981
13.425894 11.749349 -5.1158352
20.982723 18.362526 2.6013441
15.104494 13.218334 -5.2544651
24.190029 21.169323 3.7590859
17.246078 15.09249 -5.4301229
0 0 0
20.095127 17.585768 -5.6759758
19.734659 17.270313 4.3085089
21.960737 19.21841 -5.4982872
19.656397 17.201822 4.9213519
5.91327 5.138514 -4.6459198
21.82675 18.967012 -4.750773
6.2174029 5.4027991 -4.6279979
22.702412 19.727943 -4.2269549
6.6220479 5.7544279 -4.6646681
23.951902 20.813728 -3.710768
7.0554361 6.1310339 -4.6949801
31.427252 27.309656 -3.884367
7.4911518 6.5096631 -4.697587
69.235504 60.16428 -6.4139528
8.0375843 6.9844999 -4.740922
84.879822 73.758881 -5.243957
8.617178 7.4881568 -4.7684512
84.596008 73.512253 -2.602036
9.2755499 8.0602694 -4.7984481
0 0 0
10.072098 8.7524529 -4.856688
20.809423 18.082975 0.640064
10.978274 9.5399017 -4.9144359
20.240503 17.588594 1.250478
12.093863 10.509326 -4.9995208
21.369726 18.569868 1.979684
13.452318 11.689797 -5.110322
0 0 0
15.135943 13.152833 -5.2494001
20.566189 17.871609 3.186233
17.281033 15.016874 -5.4245892
19.915812 17.306444 3.7081189
20.129816 17.492411 -5.6684909
19.619049 17.048563 4.2702489
22.084068 19.190617 -5.5123591
19.381048 16.841745 4.8376632
5.9250679 5.1143808 -4.641839
22.020992 19.008011 -4.7793059
6.2009659 5.35253 -4.6025271
22.725725 19.61632 -4.219162
6.6384201 5.7301302 -4.6627898
30.011702 25.905405 -4.6362529
7.0730219 6.105269 -4.6931849
31.538742 27.223511 -3.8869679
7.5181708 6.489511 -4.7010102
69.488998 59.981297 -6.4189749
8.0441027 6.9434829 -4.7311602
0 0 -0
8.6447563 7.4619532 -4.7699928
22.016567 19.00419 -0.67525202
9.307868 8.0343361 -4.8013582
71.702576 61.891998 0
10.103911 8.7214622 -4.8580561
24.30813 20.982216 0.74553502
11.012716 9.5059223 -4.9157171
20.138407 17.383005 1.240602
12.134426 10.474155 -5.001904
21.621485 18.663164 1.997262
13.488096 11.642612 -5.10922
20.456015 17.657158 2.521086
15.182403 13.105099 -5.2504129
20.225342 17.458048 3.1244409
17.316002 14.946772 -5.4199781
0 0 0
20.164017 17.405111 -5.6618381
0 0 0
22.210072 19.171219 -5.5279121
24.545938 21.187485 6.1092901
5.9428811 5.0936718 -4.641839
22.17111 19.002966 -4.7974639
6.2434392 5.3512812 -4.6201611
22.971491 19.688974 -4.2520061
6.6637411 5.711524 -4.6665459
23.902964 20.487345 -3.6814981
7.0997138 6.0851989 -4.6967759
52.423229 44.932201 -6.4414949
7.543519 6.4655862 -4.7027211
0 0 -0
8.0738354 6.9201231 -4.7344141
23.496677 20.139114 -1.443146
8.6735477 7.4341388 -4.7715349
85.261368 73.077927 -2.6071429
9.327364 7.9945278 -4.7969928
0 0 0
10.131433 8.6836996 -4.856688
24.590714 21.076818 0.75194103
11.034316 9.4575653 -4.9105949
20.135241 17.258013 1.236689
12.170907 10.431742 -5.001904
21.492588 18.4214 1.979405
13.519889 11.587961 -5.1059122
21.503321 18.430599 2.6422169
15.222171 13.046996 -5.2483869
21.332884 18.284515 3.2856579
17.359196 14.878649 -5.4172111
0 0 0
20.203842 17.316809 -5.6560159
20.846478 17.867617 4.5108352
22.324596 19.13452 -5.539762
20.680098 17.725012 5.1316862
5.9606271 5.0728941 -4.641839
22.348532 19.020103 -4.8214579
6.2992611 5.361095 -4.6475921
22.475998 19.128586 -4.1479049
6.683639 5.6882262 -4.6665459
30.231146 25.728739 -4.642293
7.1154699 6.0557442 -4.6931849
52.467548 44.653412 -6.4277468
7.5632911 6.4368691 -4.7010102
0 0 -0
8.0923786 6.8871579 -4.7311602
23.639868 20.119118 -1.447618
8.6882038 7.3942461 -4.765368
24.271294 20.656504 -0.73996401
9.355216 7.9619179 -4.7969928
24.402727 20.768362 0
10.147374 8.6360979 -4.8498478
24.56669 20.907906 0.74896997
11.055721 9.4091616 -4.9054732
22.328402 19.002972 1.367308
12.198526 10.381766 -4.9983292
21.049297 17.914368 1.932808
13.557332 11.538201 -5.1048102
20.748627 17.658476 2.541894
15.252891 12.981236 -5.2433219
20.252932 17.236607 3.110039
17.390282 14.800299 -5.4107561
24.892221 21.184954 4.5938148
20.252253 17.236029 -5.652689
19.775518 16.830297 4.2663579
22.421194 19.081944 -5.5471678
24.6693 20.995234 6.1033659
5.9572768 5.0342889 -4.6255159
22.432882 18.957254 -4.8253489
6.2673311 5.2963052 -4.610364
23.831482 20.139162 -4.3850551
6.7034559 5.6648588 -4.6665459
30.411816 25.699974 -4.6562309
7.139298 6.033174 -4.6949801
52.674824 44.513676 -6.4340639
7.5884771 6.4127598 -4.7027211
0 0 -0
8.1219549 6.8635831 -4.7344141
0 0 -0
8.7167835 7.3662529 -4.7669091
0 0 -0
9.3772621 7.9243999 -4.7940841
24.514797 20.716608 0
10.186073 8.6078987 -4.8539519
0 0 0
11.097185 9.3778467 -4.9093151
22.443434 18.966171 1.37029
12.237611 10.341582 -4.9995208
0 0 0
13.585781 11.480875 -5.100399
0 0 0
15.283338 12.915421 -5.2382569
21.384161 18.071016 3.2740431
17.435898 14.734475 -5.4089112
20.893768 17.656603 3.8445079
20.315289 17.167749 -5.6535211
25.387354 21.453976 5.4608598
22.475662 18.993406 -5.5442052
0 0 0
5.984479 5.023355 -4.633678
22.583294 18.956354 -4.8441548
6.2902012 5.2799778 -4.6142831
23.673622 19.871572 -4.3438601
6.7249088 5.6448698 -4.6684241
24.553905 20.610481 -3.7488649
7.148313 6.0002751 -4.687799
24.608236 20.656086 -2.9974351
7.6069312 6.3852372 -4.7010102
24.612108 20.659334 -2.24699
8.1446686 6.8366132 -4.7344141
24.510765 20.57427 -1.492337
8.7383347 7.3349352 -4.765368
24.552233 20.609077 -0.74423498
9.3977804 7.8884711 -4.7911739
27.383608 22.985725 0
10.208803 8.5692406 -4.8512158
22.959522 19.272161 0.69595599
11.11661 9.3312521 -4.9041929
23.956833 20.109301 1.458611
12.254288 10.286216 -4.992372
21.999001 18.4659 2.008424
13.623777 11.435761 -5.100399
22.222759 18.653725 2.7068701
15.320154 12.859695 -5.2362309
20.579758 17.274591 3.142096
17.475718 14.669069 -5.4061451
0 0 0
20.357121 17.087711 -5.649363
26.374386 22.138586 5.6573501
22.550566 18.928883 -5.5471678
22.896803 19.219513 5.632338
5.983479 4.9870138 -4.6193948
22.706942 18.925417 -4.8564758
6.3487768 5.2914772 -4.6436729
23.691122 19.745695 -4.3343968
6.7364349 5.6145749 -4.6627898
24.579927 20.486483 -3.7418959
7.1747079 5.9798598 -4.69139
24.539465 20.452759 -2.9803431
7.6263981 6.356328 -4.6992989
24.530819 20.445553 -2.2330389
8.1684856 6.8081388 -4.7344141
22.010324 18.34481 -1.3361911
8.7667227 7.306747 -4.7669091
21.785631 18.157537 -0.65844703
9.4338484 7.862772 -4.7955379
27.592735 22.997549 0
10.250206 8.5431757 -4.856688
21.810205 18.178019 0.65919
11.152029 9.2948141 -4.9054732
20.960606 17.469908 1.272465
12.284256 10.238484 -4.9899888
0 0 0
13.648848 11.375822 -5.0948868
26.785067 22.324385 3.2530739
15.344146 12.788792 -5.2291398
20.530069 17.111073 3.125371
17.505892 14.590529 -5.3996892
20.033695 16.697361 3.6652541
20.395613 16.999006 -5.6435409
23.749964 19.794737 5.0795531
22.646704 18.87521 -5.554574
23.169086 19.310598 5.6826992
6.0052829 4.9715328 -4.623476
22.89727 18.95573 -4.8837118
6.347486 5.2548289 -4.6299582
23.945642 19.823635 -4.3689108
6.760457 5.5967112 -4.6665459
24.635485 20.39473 -3.7400379
7.1889911 5.9514771 -4.687799
24.613285 20.376352 -2.981086
7.650219 6.3333092 -4.7010102
0 0 -0
8.1882019 6.7786841 -4.7327871
0 0 -0
8.7965908 7.2823439 -4.7699928
22.378618 18.526361 -0.67450899
9.4598694 7.8314462 -4.7955379
23.490788 19.447081 0
10.258211 8.4923611 -4.8471112
0 0 0
11.182789 9.257782 -4.9054732
0 0 0
12.306374 10.187954 -4.9852228
0 0 0
13.680572 11.325596 -5.0926809
26.733164 22.131313 3.2378399
15.38945 12.740308 -5.2301531
20.537731 17.002363 3.1179371
17.55118 14.529917 -5.398767
20.095055 16.635889 3.6663671
20.433784 16.916311 -5.6385522
28.41864 23.526651 6.0613542
22.787893 18.865183 -5.5738301
22.857534 18.922836 5.5908642
6.0208049 4.9473062 -4.6214352
23.173962 19.042086 -4.9278088
6.3613129 5.2271018 -4.626039
24.094645 19.798611 -4.3828292
6.7809229 5.5718961 -4.6665459
24.746901 20.334572 -3.7456131
7.2218022 5.9341669 -4.6949801
24.743189 20.33152 -2.9877751
7.6705852 6.3029332 -4.6992989
24.746943 20.334604 -2.2397349
8.2129908 6.7486291 -4.7327871
24.499512 20.13129 -1.478735
8.8089628 7.2383399 -4.7622838
21.707939 17.837452 -0.65232003
9.4798708 7.7896261 -4.7911739
0 0 0
10.289267 8.4547081 -4.8471112
23.24968 19.104301 0.69864899
11.210788 9.2119236 -4.9029121
0 0 0
12.33478 10.13551 -4.981648
70.797157 58.174145 6.4075351
13.710105 11.265617 -5.0882711
20.915241 17.186089 2.5255449
15.42408 12.673993 -5.2261009
20.320576 16.697453 3.0756581
17.598299 14.460552 -5.3969221
20.287489 16.670263 3.690305
20.495646 16.841307 -5.6385522
0 0 0
22.929771 18.841433 -5.5916042
23.118069 18.996157 5.6375222
6.0451741 4.9338398 -4.6275568
23.340946 19.04999 -4.9498572
6.3894181 5.2147989 -4.6338758
23.97604 19.568329 -4.3494272
6.7911539 5.5426812 -4.660912
34.026409 27.771057 -5.1361642
7.2331319 5.9034071 -4.6895938
53.564205 43.717064 -6.4504132
7.6970458 6.2820349 -4.7027211
0 0 -0
8.2438183 6.7282891 -4.737668
25.067608 20.459225 -1.508921
8.827198 7.204422 -4.759201
0 0 -0
9.4941034 7.7487249 -4.7853541
0 0 0
10.320158 8.4229193 -4.8484802
24.360044 19.881739 0.73003
11.238337 9.1723022 -4.9016318
21.616091 17.642227 1.30116
12.37128 10.096966 -4.9828401
24.115591 19.682224 2.176676
13.741429 11.21523 -5.0860658
21.891594 17.867083 2.636272
15.451033 12.610544 -5.221036
22.585779 18.433653 3.4092419
17.628061 14.387351 -5.3913889
21.103703 17.224037 3.8283639
20.536222 16.760881 -5.6343932
20.047588 16.362078 4.2514429
23.068256 18.827431 -5.6101189
23.966623 19.560644 5.828599
6.0596881 4.9105401 -4.6255159
23.649569 19.164709 -5.0010872
6.388618 5.177093 -4.6201611
24.235008 19.63913 -4.3839421
6.8214378 5.527833 -4.6684241
34.095371 27.629589 -5.1319818
7.2648048 5.8871212 -4.6967759
53.719589 43.53231 -6.4507842
7.7133112 6.2505741 -4.6992989
80.764725 65.448654 -7.269165
8.2473822 6.6833649 -4.7262802
0 0 -0
8.8608971 7.1805339 -4.7638259
24.277067 19.67321 -0.72548002
9.526886 7.7202249 -4.7882638
22.176584 17.97106 0
10.349499 8.3868399 -4.8484802
24.519403 19.869591 0.73272198
11.267345 9.1306267 -4.900351
0 0 0
12.39162 10.041697 -4.976882
0 0 0
13.780497 11.16719 -5.0860658
21.895042 17.742908 2.6292119
15.47993 12.544346 -5.215971
20.967758 16.991472 3.156034
17.678179 14.325723 -5.3913889
0 0 0
20.564213 16.664454 -5.6260772
21.941477 17.780537 4.639883
23.219353 18.816078 -5.630857
0 0 0
6.086659 4.8990479 -4.633678
23.808308 19.162905 -5.0211902
6.4084668 5.1580672 -4.6221199
24.170399 19.454346 -4.3605609
6.8314772 5.4985399 -4.6627898
34.298222 27.606056 -5.1487079
7.278718 5.8585172 -4.6931849
53.900879 43.383904 -6.4552431
7.7396288 6.229496 -4.7027211
81.354317 65.480713 -7.3026481
8.2808857 6.6651449 -4.7327871
24.723829 19.899792 -1.480039
8.8731585 7.1418538 -4.757659
24.267405 19.532423 -0.723252
9.549531 7.686255 -4.786809
83.163971 66.937271 0
10.377253 8.3524752 -4.8484802
24.803221 19.963692 0.73922098
11.309369 9.1027193 -4.9054732
21.194077 17.058754 1.268738
12.427824 10.002945 -4.9780741
25.576317 20.585943 2.295819
13.811461 11.116611 -5.0838609
0 0 0
15.521442 12.492946 -5.215971
0 0 0
17.710426 14.254822 -5.3867779
21.880798 17.611485 3.9474959
20.613262 16.591265 -5.624414
21.984941 17.695307 4.636641
23.367359 18.807993 -5.6515942
0 0 0
6.1117821 4.8842201 -4.6397991
24.112467 19.269434 -5.0711231
6.4318781 5.1400242 -4.626039
24.179356 19.322887 -4.3499842
6.850625 5.4746652 -4.6627898
34.434704 27.518433 -5.154748
7.2991199 5.8330779 -4.6931849
54.008404 43.160717 -6.4500408
7.7556739 6.1979332 -4.6992989
81.710152 65.298523 -7.3140879
8.3040972 6.6362038 -4.7327871
24.936712 19.928129 -1.488611
8.9009123 7.1131482 -4.759201
94.00222 75.121704 -2.7937591
9.5762978 7.6528811 -4.786809
23.929514 19.123226 0
10.400467 8.3115149 -4.8457432
26.081703 20.843145 0.77515203
11.317385 9.0442677 -4.8952289
21.1099 16.869938 1.260167
12.45371 9.9523602 -4.9744992
25.311352 20.22752 2.2656851
13.841163 11.06114 -5.0805531
21.806837 17.426895 2.6043169
15.537742 12.416958 -5.2068539
0 0 0
17.744864 14.180776 -5.3821669
0 0 0
20.646587 16.499683 -5.6177602
0 0 0
23.528049 18.802399 -5.6745529
23.604818 18.863749 5.693068
6.139576 4.871408 -4.6479602
24.253798 19.24402 -5.0866871
6.4661741 5.1305442 -4.637795
24.358372 19.326994 -4.3700252
6.8696952 5.450716 -4.6627898
34.455868 27.338787 -5.1435971
7.311038 5.8008962 -4.687799
54.305386 43.088261 -6.467505
7.7800961 6.1730671 -4.7010102
81.943863 65.017838 -7.3146458
8.3186255 6.6003599 -4.7279072
25.00926 19.843437 -1.4887969
8.9314728 7.0866199 -4.7622838
0 0 -0
9.6000366 7.6170878 -4.7853541
23.983593 19.029629 0
10.420586 8.2681475 -4.841639
26.379856 20.930927 0.78183597
11.34889 9.0047045 -4.8952289
25.472509 20.211 1.516374
12.488378 9.908823 -4.9744992
0 0 0
13.864632 11.000804 -5.0750408
23.677097 18.786442 2.8198259
15.574932 12.35783 -5.2048278
22.520336 17.868616 3.3618529
17.788162 14.113904 -5.380322
25.286161 20.063143 4.5364752
20.697933 16.422642 -5.616097
25.3762 20.134583 5.3220849
23.689005 18.795889 -5.6975112
24.015409 19.054873 5.7760162
6.1268158 4.8265252 -4.6255159
24.181305 19.049318 -5.0575051
6.4621301 5.0906749 -4.6221199
24.44125 19.254095 -4.372808
6.8942299 5.4310708 -4.6665459
34.46059 27.147038 -5.1301241
7.3340521 5.7775502 -4.6895938
54.424187 42.873772 -6.463789
7.801599 6.1458688 -4.7010102
0 0 -0
8.3530979 6.5803251 -4.7344141
95.153465 74.959091 -5.6488571
8.9358616 7.0394092 -4.751493
24.319834 19.158447 -0.71879601
9.6294956 7.5858331 -4.786809
87.115608 68.627113 0
10.455292 8.236371 -4.8443751
27.605618 21.746891 0.81590998
11.380256 8.9650297 -4.8952289
25.379698 19.993378 1.506685
12.510895 9.8557138 -4.9697332
24.439526 19.252737 2.17556
13.905972 10.954715 -5.0761428
0 0 0
15.605819 12.293804 -5.2007761
0 0 0
17.828154 14.044494 -5.3775549
0 0 0
20.721331 16.323652 -5.6069489
22.432587 17.67173 4.691761
23.847111 18.786051 -5.7197299
22.321735 17.584406 5.353868
6.1590452 4.818903 -4.6377578
24.617376 19.260899 -5.135323
6.467989 5.0606241 -4.6142831
24.426971 19.111921 -4.358891
6.9038572 5.4016509 -4.660912
34.525391 27.013033 -5.1264071
7.3531699 5.7531991 -4.6895938
54.669567 42.774052 -6.4760509
7.8133931 6.1132822 -4.6958761
0 0 -0
8.371995 6.5503378 -4.7327871
94.561287 73.985756 -5.5991068
8.9678764 7.016562 -4.7561178
24.354883 19.055519 -0.71796
9.6487293 7.5492678 -4.7838988
26.847052 21.005419 0
10.479586 8.1993389 -4.8430071
23.876163 18.680964 0.703848
11.403952 8.922574 -4.8926678
21.524817 16.841246 1.274515
12.549523 9.8188801 -4.972116
0 0 0
13.939193 10.906173 -5.0750408
27.552786 21.557592 3.263849
15.622119 12.222912 -5.1926718
0 0 0
17.859301 13.973306 -5.3729439
25.066502 19.612297 4.4730129
20.769182 16.250029 -5.6052861
22.690016 17.752911 4.733264
24.00215 18.779537 -5.7419481
22.330389 17.471535 5.3420191
6.1676788 4.7910399 -4.6316371
24.765512 19.237797 -5.1521831
6.5159101 5.0615449 -4.6358361
24.603027 19.11158 -4.3783751
6.9282508 5.3818498 -4.6646681
34.556732 26.843596 -5.117115
7.3647408 5.7209158 -4.6842079
54.7934 42.563396 -6.4730778
7.846108 6.09484 -4.7027211
82.26873 63.906174 -7.2845111
8.389039 6.5165882 -4.7295332
96.403046 74.885681 -5.692646
8.9923162 6.9852118 -4.7561178
0 0 -0
9.675024 7.5155382 -4.7838988
27.090797 21.044075 0
10.505177 8.1603994 -4.841639
85.049644 66.066383 2.5003729
11.438024 8.8850327 -4.893949
0 0 0
12.59277 9.7820368 -4.9756908
23.120453 17.959919 2.0472081
13.961999 10.845651 -5.0695281
27.080601 21.036154 3.1991971
15.683029 12.182544 -5.19875
25.890879 20.11198 3.8338871
17.889528 13.896548 -5.3674111
23.229761 18.04483 4.1339879
20.794886 16.153423 -5.5969691
25.46998 19.785027 5.2987399
24.173107 18.777618 -5.7671289
26.780712 20.8032 6.3892412
6.210773 4.7915778 -4.652041
24.704163 19.059128 -5.1262441
6.5050478 5.018609 -4.6162419
24.616087 18.991179 -4.3694682
6.9460592 5.3588471 -4.6646681
34.702175 26.772539 -5.1254778
7.3921618 5.7030129 -4.6895938
55.041451 42.46418 -6.4857111
7.8605499 6.0643721 -4.6992989
0 0 -0
8.4163895 6.4931979 -4.7327871
24.93858 19.239979 -1.468859
9.0183516 6.9576101 -4.757659
0 0 -0
9.6939926 7.4788628 -4.7809892
27.106592 20.912588 0
10.526227 8.1209269 -4.838903
23.806467 18.366562 0.69809097
11.467424 8.8470564 -4.893949
25.318209 19.532862 1.491219
12.603975 9.7238989 -4.96735
22.8134 17.600414 2.0148411
13.994842 10.796945 -5.0684252
27.219582 20.99976 3.207371
15.692703 12.106835 -5.1886201
0 0 0
17.91394 13.820508 -5.3609552
23.339651 18.006414 4.1428952
20.835945 16.07482 -5.5936432
22.738455 17.542595 4.718349
24.31616 18.759787 -5.7863851
22.268288 17.179863 5.2990632
6.2119021 4.7562342 -4.6397991
24.761312 18.95886 -5.1236501
6.506784 4.9820142 -4.604486
24.490532 18.751534 -4.3349528
6.9600439 5.3290591 -4.660912
34.755901 26.611364 -5.1189728
7.4073372 5.671536 -4.6860032
55.275768 42.322701 -6.4950008
7.8769822 6.031126 -4.6958761
0 0 -0
8.4372282 6.4600868 -4.7311602
0 0 -0
9.0379295 6.920023 -4.7545762
22.34322 17.107412 -0.653341
9.7242956 7.445549 -4.782444
27.357733 20.946848 0
10.55592 8.0822945 -4.838903
23.311626 17.848888 0.68165803
11.487736 8.7957525 -4.8888268
25.2659 19.345205 1.483952
12.642561 9.6799612 -4.9685421
22.697165 17.378416 1.998937
14.04653 10.754931 -5.0728359
24.858284 19.03311 2.920892
15.730824 12.044535 -5.186594
25.816145 19.766508 3.802294
17.970652 13.759493 -5.3628001
25.267359 19.346323 4.472456
20.891611 15.995969 -5.5928111
22.460997 17.19759 4.647665
24.487745 18.749401 -5.8108249
0 0 0
6.225729 4.7324371 -4.6377578
24.751932 18.814978 -5.1080861
6.5879898 5.0078068 -4.6495509
24.770277 18.828922 -4.372808
6.9786048 5.304729 -4.660912
34.794819 26.448997 -5.1110749
7.4270921 5.6456432 -4.6860032
55.42952 42.134296 -6.4957442
7.8922319 5.9992151 -4.6924529
0 0 -0
8.4597292 6.430594 -4.7311602
25.218763 19.169838 -1.477244
9.0502787 6.8794951 -4.7484088
22.609737 17.186607 -0.65937603
9.747263 7.4093022 -4.7809892
98.812904 75.111816 0
10.584071 8.0453939 -4.838903
25.968409 19.739672 0.75732601
11.524406 8.7601824 -4.8913879
25.380995 19.293154 1.486747
12.670196 9.6311464 -4.9661589
22.576624 17.161434 1.983032
14.05644 10.684888 -5.0629129
22.660725 17.225365 2.6555929
15.763533 11.982521 -5.1835551
25.910295 19.695499 3.806011
17.996885 13.680186 -5.3563442
0 0 0
20.909948 15.894526 -5.5828309
22.813129 17.341213 4.707973
24.656321 18.7423 -5.8352652
22.531477 17.127117 5.3323908
6.244133 4.7138391 -4.6397991
24.754332 18.687613 -5.0957651
6.5461121 4.9418101 -4.6084051
24.72193 18.663151 -4.3533239
7.0046129 5.2879429 -4.6665459
34.90136 26.347836 -5.113863
7.4429188 5.6188302 -4.6842079
55.632504 41.998253 -6.5031748
7.923624 5.9817252 -4.6992989
0 0 -0
8.4810057 6.4025059 -4.7311602
27.252979 20.573898 -1.592398
9.0759878 6.8516712 -4.7499509
22.733627 17.162136 -0.66132498
9.7747517 7.3791838 -4.782444
25.166008 18.998396 0
10.601691 8.003459 -4.8347988
96.325089 72.718018 2.802115
11.553391 8.7219191 -4.8913879
28.467978 21.491129 1.663391
12.708159 9.5936804 -4.9685421
24.123829 18.211632 2.113616
14.088725 10.635901 -5.06181
0 0 0
15.778474 11.911531 -5.1754508
21.967531 16.583792 3.218755
18.023512 13.606362 -5.350811
0 0 0
20.953173 15.818029 -5.5803361
23.125675 17.458101 4.7605
24.812452 18.731487 -5.8574829
0 0 0
6.2385221 4.6755118 -4.623476
24.794132 18.582169 -5.0905771
6.574481 4.9273 -4.6162419
32.863262 24.629644 -5.7717729
7.0173731 5.2592292 -4.6627898
35.120266 26.321175 -5.1324468
7.4710641 5.5992508 -4.6895938
55.504658 41.598427 -6.47122
7.9386649 5.9496989 -4.6958761
0 0 -0
8.5062227 6.3750601 -4.7327871
25.217558 18.899508 -1.469605
9.111659 6.8288078 -4.7561178
25.478159 19.094818 -0.73922098
9.791501 7.3383222 -4.778079
90.788399 68.042122 0
10.629559 7.9664111 -4.8347988
95.013504 71.208656 2.7567141
11.577695 8.677 -4.8888268
28.593966 21.429985 1.6663719
12.732397 9.5424004 -4.9649668
0 0 0
14.128835 10.588973 -5.0629129
22.532036 16.886822 2.6269829
15.813756 11.85175 -5.1734252
26.065996 19.535378 3.809263
18.055317 13.531706 -5.346199
21.858128 16.381754 3.8389421
20.973808 15.718995 -5.571188
22.861137 17.133471 4.693707
24.962601 18.708429 -5.87748
23.157091 17.355274 5.4523702
6.2705512 4.6671252 -4.6357179
0 0 -0
6.627151 4.932539 -4.6417141
33.1926 24.705008 -5.8151951
7.0347738 5.23593 -4.6627898
35.108555 26.131037 -5.1180439
7.4924579 5.57658 -4.69139
55.942616 41.637672 -6.5061479
7.967052 5.9298172 -4.7010102
84.687607 63.032356 -7.3821702
8.5185223 6.3402729 -4.7279072
0 0 -0
9.1224089 6.789741 -4.7499509
22.715174 16.906734 -0.657426
9.8127918 7.3035879 -4.7766242
91.032784 67.75502 0
10.655917 7.931119 -4.8347988
26.39464 19.645334 0.76391798
11.603365 8.6362982 -4.887547
94.882874 70.620613 5.5158162
12.763969 9.5001268 -4.9649668
24.29203 18.080378 2.117522
14.151533 10.532881 -5.0585022
24.779608 18.443277 2.8818779
15.843657 11.792316 -5.1703858
24.537107 18.262787 3.5769629
18.096966 13.469436 -5.3452768
26.389484 19.641497 4.6233191
21.016401 15.642352 -5.5686932
23.098307 17.191898 4.73067
25.10964 18.688917 -5.8974762
22.277987 16.581341 5.232408
6.282084 4.640017 -4.6316371
27.860086 20.57777 -5.6904221
6.6003079 4.875061 -4.610364
33.499607 24.743185 -5.8530502
7.0510812 5.2080069 -4.660912
35.287205 26.063522 -5.1301241
7.4956002 5.536334 -4.6806169
56.056438 41.403912 -6.501689
7.9771042 5.8919778 -4.6941652
0 0 -0
8.5475874 6.313343 -4.7311602
26.830557 19.817348 -1.555504
9.1472387 6.7562528 -4.7499509
22.748051 16.801966 -0.65658998
9.8395014 7.2675648 -4.7766242
93.474899 69.041603 0
10.687944 7.8942351 -4.8361669
93.353218 68.951729 2.694509
11.634947 8.5937023 -4.887547
29.327843 21.661873 1.700284
12.789496 9.4464645 -4.9613929
24.332474 17.972237 2.1152899
14.190051 10.48093 -5.0585022
27.810375 20.541054 3.2255781
15.871218 11.722659 -5.1653199
22.19112 16.39061 3.2261889
18.124308 13.386815 -5.3388209
24.568716 18.146729 4.292645
21.057869 15.553578 -5.5645351
23.281824 17.196217 4.7553129
25.25703 18.655127 -5.9159908
22.762316 16.8125 5.3316498
6.311306 4.6293349 -4.641839
27.950447 20.501616 -5.694962
6.630497 4.863461 -4.6201611
33.638966 24.674133 -5.86307
7.065464 5.182508 -4.6590338
35.440712 25.995714 -5.1398802
7.5254459 5.5199041 -4.687799
56.190212 41.215446 -6.501317
8.002429 5.869771 -4.697587
84.272995 61.814125 -7.308228
8.5566893 6.27632 -4.7246528
0 0 -0
9.1666174 6.723701 -4.7484088
24.190174 17.74346 -0.696513
9.8575373 7.2304902 -4.7737141
22.654968 16.61739 0
10.698908 7.8476348 -4.8293262
99.014626 72.62709 2.85095
11.657269 8.5505915 -4.8849859
23.513166 17.246876 1.3598551
12.814593 9.3994856 -4.9590101
23.851395 17.494965 2.068414
14.224728 10.433819 -5.0585022
0 0 0
15.897522 11.660811 -5.1612682
22.472799 16.483768 3.259176
18.162321 13.322038 -5.336977
23.900528 17.531006 4.165719
21.099865 15.476722 -5.5620399
24.73274 18.141432 5.0393472
25.296566 18.554996 -5.9108071
22.586559 16.567209 5.277586
6.3294039 4.6104069 -4.6438799
0 0 -0
6.6437688 4.8393941 -4.6182022
33.803844 24.623089 -5.8775439
7.0826101 5.1590509 -4.6590338
35.597366 25.92951 -5.1501021
7.5321522 5.4865022 -4.6806169
56.333012 41.033581 -6.5020599
8.0247707 5.8453312 -4.6992989
0 0 -0
8.5774536 6.247911 -4.7246528
26.447874 19.264921 -1.525877
9.1828947 6.688921 -4.745326
0 0 -0
9.8784475 7.195569 -4.7722592
22.994469 16.749422 0
10.724872 7.8121138 -4.8293262
95.938545 69.882683 2.755693
11.682495 8.5096569 -4.8837051
23.576687 17.173515 1.3602279
12.85495 9.3636856 -4.962584
24.1544 17.59433 2.0896201
14.253032 10.382064 -5.0562968
22.991621 16.747349 2.6537349
15.914207 11.592082 -5.1541772
22.296122 16.24074 3.225724
18.190666 13.25028 -5.332366
29.142126 21.227444 5.0670018
21.135258 15.395152 -5.5578818
0 0 0
25.357956 18.47101 -5.9108071
23.086191 16.816235 5.3812709
6.3398838 4.5842509 -4.6397991
28.150126 20.354826 -5.707283
6.6549711 4.8120842 -4.6142831
34.066139 24.632584 -5.9081621
7.1034398 5.136364 -4.660912
35.629719 25.76318 -5.1417389
7.5454659 5.4559851 -4.6770258
56.504963 40.857677 -6.5054049
8.0392694 5.8130441 -4.6958761
0 0 -0
8.6051359 6.2222118 -4.7279072
26.540871 19.191204 -1.5273679
9.2211447 6.6676359 -4.7530341
24.16457 17.472946 -0.69233501
9.9035072 7.1610398 -4.7722592
96.742668 69.952805 0
10.758171 7.7790308 -4.8320632
26.815315 19.38965 0.76828098
11.712131 8.4688215 -4.8837051
28.804146 20.827736 1.657614
12.875183 9.309803 -4.957818
25.673983 18.564375 2.2154601
14.279842 10.325485 -5.05299
22.714298 16.424282 2.615092
15.948307 11.531921 -5.1521511
22.124102 15.997522 3.1927381
18.224195 13.177573 -5.3286772
0 0 0
21.169849 15.30752 -5.5528922
0 0 0
25.368132 18.34322 -5.8982172
22.733847 16.438417 5.2857318
6.3390741 4.5500598 -4.6275568
28.214579 20.251856 -5.705986
6.6688919 4.7867961 -4.6123228
34.200169 24.548189 -5.916513
7.1241908 5.1136012 -4.6627898
35.771057 25.675741 -5.1491718
7.573173 5.4358711 -4.6824121
56.595444 40.62307 -6.4994588
8.0565701 5.7828431 -4.6941652
0 0 -0
8.6208611 6.18788 -4.7246528
26.484337 19.009922 -1.520287
9.2383623 6.6311102 -4.7499509
0 0 -0
9.9284391 7.1264329 -4.7722592
96.96347 69.598419 0
10.7822 7.7392459 -4.8306942
23.712111 17.020075 0.67766601
11.735459 8.4234762 -4.881144
29.152571 20.925127 1.673453
12.892086 9.2536793 -4.9518609
24.876339 17.855734 2.1412399
14.297049 10.262133 -5.0463738
0 0 0
15.982168 11.471678 -5.150125
22.512238 16.158829 3.240592
18.257425 13.104812 -5.3249879
24.755541 17.769028 4.2826238
21.200893 15.217573 -5.547071
0 0 0
25.390482 18.224775 -5.8885889
23.005033 16.512548 5.3353529
6.352118 4.5259061 -4.6255159
28.333324 20.187592 -5.715713
6.705442 4.7776508 -4.626039
34.401791 24.511395 -5.936553
7.1333699 5.082551 -4.657156
35.769875 25.486158 -5.1361642
7.592103 5.4094 -4.6824121
56.57798 40.312004 -6.4812531
8.0796528 5.7567811 -4.6958761
0 0 -0
8.6453867 6.1598678 -4.7262802
26.690468 19.01705 -1.5283
9.2554426 6.5945349 -4.7468672
24.028671 17.12051 -0.68500102
9.9471884 7.0874052 -4.7693491
24.784412 17.658979 0
10.799969 7.695015 -4.8265901
27.16497 19.355133 0.774409
11.774052 8.3890533 -4.8849859
29.248222 20.839458 1.674757
12.924312 9.2086163 -4.9518609
26.241669 18.697279 2.253129
14.326524 10.207697 -5.0441689
23.21439 16.540333 2.6593089
16.012665 11.409078 -5.1470861
24.001892 17.101431 3.4464099
18.293554 13.03422 -5.3222208
24.675478 17.581364 4.2581301
21.237955 15.132116 -5.542912
0 0 0
25.421934 18.113216 -5.8811831
27.675688 19.719023 6.4025722
6.3903508 4.5195961 -4.641839
28.44552 20.118187 -5.724144
6.7448568 4.7703218 -4.6417141
34.629444 24.491787 -5.9610481
7.1510701 5.0576172 -4.657156
35.842411 25.349661 -5.133841
7.6109409 5.382863 -4.6824121
56.142822 39.707191 -6.4154849
8.1056051 5.7327151 -4.6992989
0 0 -0
8.6757879 6.1359792 -4.7311602
0 0 -0
9.2904615 6.5707092 -4.7530341
25.821943 18.262653 -0.73430097
9.9840374 7.0612421 -4.7751689
24.796923 17.537703 0
10.81756 7.650754 -4.8224859
25.381186 17.950926 0.72176701
11.793985 8.3413343 -4.881144
0 0 0
12.965733 9.1700563 -4.9554348
26.261171 18.573298 2.249222
14.340096 10.142079 -5.0364509
0 0 0
16.058714 11.357577 -5.1491122
0 0 0
18.316702 12.954545 -5.3157659
26.809685 18.961235 4.6149688
21.268291 15.042068 -5.5370908
25.361532 17.937025 5.1035471
25.440083 17.99258 -5.8708138
0 0 0
6.405302 4.4983811 -4.641839
28.512075 20.02375 -5.724144
6.7378082 4.7318959 -4.626039
34.697502 24.367716 -5.9588208
7.170692 5.0359058 -4.6590338
42.867683 30.105553 -6.1257639
7.625824 5.3555412 -4.6806169
56.016701 39.339977 -6.3861308
8.1216106 5.7037268 -4.697587
0 0 -0
8.6990776 6.1092768 -4.7327871
26.714661 18.761444 -1.522337
9.3061581 6.5356231 -4.7499509
25.722008 18.064314 -0.72975099
10.001299 7.0238142 -4.7722592
26.445814 18.572636 0
10.855174 7.6234822 -4.8279581
63.143272 44.344898 1.791418
11.818479 8.3000011 -4.8798642
23.376146 16.416838 1.332091
12.992944 9.1248169 -4.9542441
23.11923 16.236408 1.975499
14.364209 10.087842 -5.033144
0 0 0
16.067787 11.284249 -5.1399951
24.797256 17.414869 3.5435121
18.337261 12.878078 -5.30931
0 0 0
21.295641 14.955719 -5.5312691
0 0 0
25.464222 17.883272 -5.8626671
0 0 0
6.3955612 4.458292 -4.623476
28.607689 19.942179 -5.729331
6.751421 4.706358 -4.6240802
34.837578 24.284981 -5.9682851
7.1911211 5.0128698 -4.660912
42.93338 29.928497 -6.1201882
7.6503329 5.3329821 -4.6842079
55.836739 38.923321 -6.3500891
8.1325703 5.6691461 -4.6924529
0 0 -0
8.7113533 6.0726109 -4.7279072
0 0 -0
9.3198271 6.4967728 -4.745326
60.105705 41.899181 -1.701082
10.022695 6.9867358 -4.7708039
26.490784 18.466501 0
10.875547 7.5812521 -4.825222
62.057617 43.259842 1.7563241
11.834939 8.2500362 -4.874742
23.544744 16.412844 1.3384269
13.024711 9.0794163 -4.9542441
23.084101 16.09173 1.9676861
14.386711 10.028855 -5.0287342
23.736332 16.546396 2.6994381
16.107071 11.228104 -5.1399951
24.802477 17.289597 3.5356131
18.366129 12.802873 -5.3046989
0 0 0
21.328449 14.867882 -5.526279
25.573687 17.827202 5.1217041
25.503906 17.778559 -5.8574829
0 0 0
6.4131389 4.4390178 -4.6255159
28.618486 19.809017 -5.718307
6.7956629 4.7037921 -4.6436729
30.680603 21.236362 -5.24403
7.2018962 4.9849758 -4.657156
43.091187 29.826668 -6.128551
7.6650362 5.3055501 -4.6824121
55.644573 38.515812 -6.3136759
8.1572685 5.6462622 -4.6958761
0 0 -0
8.7344465 6.0457702 -4.7295332
0 0 -0
9.3413191 6.4658322 -4.745326
25.735849 17.813726 -0.72668701
10.045807 6.9534621 -4.7708039
26.548582 18.37628 0
10.888264 7.5365901 -4.8197498
62.062626 42.958233 1.752424
11.862231 8.2107458 -4.874742
0 0 0
13.032769 9.0209637 -4.9459028
23.248886 16.09231 1.977173
14.410403 9.9745283 -5.0254259
23.76487 16.449463 2.696466
16.128305 11.163619 -5.1349301
23.543188 16.296019 3.3483789
18.38608 12.726394 -5.298243
0 0 0
21.364765 14.788168 -5.522953
0 0 0
25.565952 17.696127 -5.8582239
24.725605 17.114458 5.6656651
6.4597888 4.4380331 -4.6479602
28.703732 19.720165 -5.72155
6.768929 4.6504192 -4.6142831
30.741493 21.120155 -5.2418032
7.2308989 4.967804 -4.6646681
31.370523 21.552317 -4.4508772
7.6835108 5.278759 -4.6824121
55.496387 38.127373 -6.2817211
8.1739511 5.6157041 -4.6941652
0 0 -0
8.7494745 6.0111032 -4.7262802
0 0 -0
9.372961 6.4394531 -4.7499509
25.817657 17.73736 -0.72724402
10.051594 6.9056911 -4.762074
26.78731 18.403536 0
10.914508 7.4985328 -4.8197498
100.70633 69.187706 2.836745
11.893946 8.1714306 -4.8760219
24.067587 16.535019 1.3617181
13.070476 8.9797363 -4.9482861
23.068125 15.848364 1.957083
14.445136 9.924161 -5.0254259
27.813847 19.108791 3.1482921
16.163992 11.105056 -5.1339169
25.037477 17.201359 3.5523391
18.417562 12.653315 -5.2945542
25.909569 17.800505 4.4179001
21.400137 14.702416 -5.518795
24.656647 16.939718 4.9148388
25.608133 17.593412 -5.8537798
25.407261 17.455408 5.8078618
6.441133 4.3921952 -4.623476
28.765879 19.615393 -5.720253
6.790884 4.6306901 -4.6182022
30.8314 21.023867 -5.244586
7.2365251 4.9345722 -4.657156
0 0 -0
7.7018919 5.251904 -4.6824121
55.346169 37.740437 -6.2497659
8.1935053 5.5871339 -4.6941652
0 0 -0
8.7704067 5.9805222 -4.7262802
0 0 -0
9.3953838 6.406693 -4.7499509
25.747265 17.557007 -0.72353101
10.094111 6.883153 -4.7708039
24.868521 16.957792 0
10.934407 7.4561501 -4.8170142
103.26328 70.415016 2.901829
11.9224 8.1298599 -4.8760219
24.164778 16.477911 1.3639539
13.079661 8.9189939 -4.9399462
23.363972 15.931843 1.977452
14.473339 9.8693399 -5.023221
28.831339 19.66003 3.2556751
16.193069 11.04202 -5.130878
24.220968 16.516228 3.4282899
18.43268 12.569207 -5.2862539
25.788284 17.584976 4.3867259
21.428703 14.612188 -5.5129728
26.509218 18.076582 5.2715039
25.601196 17.457401 -5.8382268
24.964657 17.023348 5.693068
6.472755 4.3823848 -4.6357179
28.843838 19.528749 -5.722847
6.7802129 4.5905499 -4.6005669
30.812386 20.861555 -5.2295561
7.258698 4.9145079 -4.660912
31.555981 21.365007 -4.4564519
7.7103848 5.220324 -4.6770258
55.226963 37.391472 -6.22227
8.2060003 5.5558801 -4.690742
0 0 -0
8.7871637 5.949358 -4.7246528
68.21434 46.184589 -3.8416181
9.4104643 6.3713641 -4.7468672
68.303192 46.244743 -1.915086
10.107624 6.8433771 -4.766439
27.087509 18.339624 0
10.949734 7.413528 -4.8129091
25.18943 17.054529 0.70626199
11.933603 8.0796576 -4.8696198
24.199432 16.384251 1.362836
13.112327 8.8777132 -4.9411368
26.856318 18.183096 2.2679169
14.499619 9.8169813 -5.0210161
26.244844 17.769098 2.9569349
16.223186 10.983924 -5.1288519
24.956596 16.896889 3.5244629
18.454922 12.494922 -5.2807212
0 0 0
21.47056 14.536664 -5.5113101
0 0 0
25.610119 17.339355 -5.8271179
25.001438 16.92725 5.6886239
6.5080042 4.3731952 -4.650001
28.852867 19.388309 -5.711174
6.8396149 4.5960269 -4.6299582
31.016535 20.842234 -5.2518229
7.2758098 4.8891382 -4.660912
31.58091 21.221478 -4.4494829
7.7315292 5.1953688 -4.678822
55.152206 37.060722 -6.1992331
8.2283459 5.5292158 -4.6924529
0 0 -0
8.8139458 5.9227219 -4.7279072
68.209335 45.834743 -3.8323009
9.4326487 6.3384728 -4.7468672
68.275024 45.878883 -1.909794
10.137638 6.8122058 -4.7693491
24.817371 16.676573 0
10.978668 7.3773541 -4.8142781
62.52293 42.013638 1.748896
11.958591 8.0358353 -4.86834
24.332762 16.350927 1.3671221
13.1369 8.8276253 -4.9387541
26.896446 18.07365 2.265964
14.517844 9.7555799 -5.0155029
28.197575 18.947971 3.169471
16.258221 10.925064 -5.1278391
0 0 0
18.482275 12.419566 -5.2761092
24.858599 16.704273 4.2091408
21.504938 14.45071 -5.5071521
0 0 0
25.56609 17.179689 -5.8034191
0 0 0
6.4995742 4.3363152 -4.633678
28.903866 19.283766 -5.70858
6.8664212 4.5810642 -4.637795
31.009689 20.688705 -5.2390199
7.2861061 4.8610649 -4.657156
31.522215 21.030645 -4.4313641
7.751688 5.1716862 -4.6806169
55.10252 36.762695 -6.1799111
8.258666 5.5099258 -4.6992989
0 0 -0
8.8335371 5.8934622 -4.7279072
68.158195 45.473038 -3.820935
9.4536152 6.3071599 -4.7468672
24.160608 16.119211 -0.67432398
10.153972 6.774416 -4.766439
60.499321 40.363274 0
10.996817 7.3367362 -4.8115411
23.608404 15.750797 0.65891099
11.972563 7.9877229 -4.8632178
24.430058 16.298979 1.369544
13.162924 8.7818947 -4.9375629
26.972828 17.995436 2.267359
14.556511 9.7116537 -5.0177078
0 0 0
16.287922 10.866797 -5.125813
23.848219 15.910793 3.352561
18.513643 12.35173 -5.2733431
24.393234 16.27441 4.1211839
21.526701 14.361949 -5.5004978
0 0 0
25.586948 17.07082 -5.7952719
25.724283 17.162445 5.8263779
6.518292 4.314364 -4.6357179
28.944723 19.158096 -5.702744
6.8889799 4.5597172 -4.6417141
31.035759 20.542122 -5.230669
7.306818 4.836278 -4.6590338
31.784607 21.037773 -4.4573822
7.7765522 5.1471872 -4.6842079
55.067509 36.448391 -6.1609612
8.2697601 5.4736352 -4.6941652
0 0 -0
8.8489828 5.8570142 -4.7246528
68.151138 45.108257 -3.8112459
9.4735899 6.2704329 -4.745326
23.906067 15.823082 -0.66559601
10.172518 6.7330432 -4.7635288
27.641647 18.295609 0
11.023633 7.2963839 -4.8115411
23.615953 15.631059 0.65751898
12.008077 7.9479728 -4.8657789
24.506289 16.22036 1.370476
13.188653 8.7293787 -4.9351802
27.431234 18.15634 2.3002839
14.582387 9.6518717 -5.0144
26.343132 17.43614 2.947274
16.314732 10.798486 -5.1217608
0 0 0
18.545807 12.275202 -5.2696538
25.598886 16.943535 4.3143559
21.56288 14.27216 -5.4963398
26.778971 17.724615 5.2760429
25.610006 16.950895 -5.7863851
25.32811 16.764311 5.722692
6.5469389 4.3021722 -4.6459198
29.041079 19.083687 -5.709228
6.8603468 4.508122 -4.6123228
31.083845 20.426043 -5.2273288
7.3198638 4.810082 -4.657156
0 0 -0
7.7876019 5.1174459 -4.6806169
55.031631 36.162788 -6.1434979
8.2908859 5.4481678 -4.6958761
0 0 -0
8.8683558 5.8276391 -4.7246528
68.130043 44.770111 -3.801743
9.4943304 6.2389841 -4.745326
68.245865 44.846218 -1.89596
10.197903 6.7013211 -4.7649841
27.708849 18.208241 0
11.054049 7.2639179 -4.8142781
23.490534 15.436271 0.65259802
12.034367 7.9081111 -4.8657789
25.54167 16.784128 1.425258
13.211145 8.6814041 -4.932797
23.569679 15.48828 1.97215
14.607886 9.5992413 -5.0121951
28.50102 18.7288 3.1817329
16.347216 10.742202 -5.120748
24.221006 15.916285 3.3892641
18.560387 12.196537 -5.2622762
0 0 0
21.59701 14.191984 -5.4930139
26.712252 17.55335 5.2514009
25.649651 16.855085 -5.7826819
25.850037 16.986767 5.8278589
6.5640502 4.2823191 -4.6479602
29.160398 19.023945 -5.720253
6.921989 4.5158348 -4.6436729
31.124866 20.305544 -5.2228751
7.3446479 4.791573 -4.6627898
31.773693 20.72883 -4.4364748
7.8015351 5.0896411 -4.678822
55.007812 35.886532 -6.1275201
8.3058786 5.4186702 -4.6941652
68.954475 44.985188 -5.7571268
8.8876324 5.7981992 -4.7246528
68.130882 44.447884 -3.7935441
9.5180578 6.2094831 -4.7468672
68.260231 44.532272 -1.892247
10.210707 6.6613598 -4.7606201
27.541267 17.96764 0
11.059187 7.2149 -4.8060689
23.719097 15.474096 0.65751898
12.063697 7.8702321 -4.8670592
28.214128 18.406607 1.5709701
13.233463 8.6333752 -4.9304142
23.437101 15.290124 1.956804
14.629976 9.544446 -5.0088878
26.848455 17.515657 2.990747
16.379505 10.685821 -5.1197348
28.492842 18.588436 3.9783781
18.581167 12.122163 -5.256743
24.771837 16.160892 4.1568122
21.627565 14.109602 -5.4888549
25.044687 16.338896 4.9128938
25.672478 16.748461 -5.7752752
